# .PCD v0.7 - Point Cloud Data file format
VERSION 0.7
FIELDS x y z
SIZE 4 4 4
TYPE F F F
COUNT 1 1 1
WIDTH 1229
HEIGHT 1
VIEWPOINT 0 0 0 1 0 0 0
POINTS 1229
DATA ascii
-0.01081069 0.0086885197 -0.014800852
0.010760819 0.0087820329 -0.014801931
0.011339301 0.0085176192 -0.014374647
-0.01120955 0.0093569169 -0.014116452
-0.010476905 0.0095681464 -0.01458746
-0.0098196818 0.0098092053 -0.014791043
0.0097111296 0.0097016124 -0.014922065
0.010645189 0.009463001 -0.014546701
0.011107599 0.0095071737 -0.014148951
-0.010476056 0.010424067 -0.014195782
-0.0095650945 0.010414 -0.01461529
-0.0085352724 0.010885578 -0.014820209
0.0086849695 0.010814297 -0.014805822
0.0095819449 0.010464944 -0.014601748
0.010369923 0.010456796 -0.014241334
-0.0093364688 0.01125096 -0.014084494
-0.0084661329 0.011393865 -0.01434388
-0.00763585 0.011524396 -0.014597126
-0.0066547864 0.011771871 -0.014803122
0.0066484716 0.011813361 -0.014764551
0.0076475148 0.011613835 -0.014502295
0.0084625771 0.011387859 -0.014351529
0.0092629613 0.011170167 -0.014199264
-0.0072875856 0.012164238 -0.014118262
-0.006402418 0.012362972 -0.014328673
-0.0055255746 0.012485774 -0.014611167
-0.0044929618 0.01278648 -0.014787763
-0.0038377531 0.012949801 -0.014927298
0.0019945926 0.012993562 -0.014999439
0.0039643394 0.012992699 -0.014825886
0.0046028965 0.012697792 -0.014825637
0.0055196634 0.012473095 -0.014626582
0.0063647632 0.012308921 -0.014400129
0.0073822117 0.012149487 -0.014089272
-0.0053763757 0.013056058 -0.014109848
-0.004485284 0.013337299 -0.014240495
-0.003517539 0.013417895 -0.014534593
-0.0025631066 0.013459655 -0.014533346
-0.0014165305 0.013610942 -0.014382055
-0.00042869104 0.013524167 -0.014468834
0.0004280218 0.013460122 -0.014532883
0.0014494515 0.013447199 -0.014545802
0.0025828893 0.013404625 -0.014588377
0.0035557502 0.013392159 -0.01455521
0.0043657594 0.013366323 -0.014266716
0.0051002442 0.013194564 -0.014098977
-0.0044229906 -0.014309598 -0.013296988
-0.0034995135 -0.014488404 -0.013466183
-0.0025591492 -0.014435359 -0.013557641
-0.0016069524 -0.014470525 -0.013522474
-0.0004587078 -0.014525045 -0.013467954
0.00062061031 -0.01443782 -0.013555181
0.0015893535 -0.014561506 -0.013431493
0.0024262315 -0.014564034 -0.013428967
0.0034284983 -0.014459153 -0.013511945
0.0044935974 -0.014298194 -0.013275756
0.0052343658 -0.014143633 -0.013087915
-0.0073437728 -0.013090316 -0.013166211
-0.0064318888 -0.013388895 -0.013289126
-0.0055923234 -0.013502558 -0.013563533
-0.0045497147 -0.01384975 -0.01369826
-0.0038678399 -0.01391774 -0.013945451
-0.0013617601 -0.013997295 -0.013995707
-1.2007748e-06 -0.013994561 -0.01399844
0.0015035926 -0.013996366 -0.013996634
0.0022451715 -0.013999356 -0.013993644
0.0038734851 -0.013901222 -0.013959358
0.0046519153 -0.013764606 -0.013736164
0.0053799488 -0.013528121 -0.013636136
0.0063917176 -0.013314412 -0.013382178
0.0073556551 -0.013126266 -0.013124769
-0.0092855934 -0.012183442 -0.013175528
-0.0084287096 -0.012369396 -0.013385644
-0.0075678937 -0.012690869 -0.013462065
-0.0065067317 -0.012780411 -0.013863018
0.0059774444 -0.012966024 -0.013922054
0.0064681838 -0.012799529 -0.013861716
0.007572317 -0.012478703 -0.013672188
0.0084264791 -0.012440901 -0.013315174
0.0094032688 -0.012150397 -0.013154182
-0.011125608 -0.011141865 -0.013170527
-0.010488824 -0.011367599 -0.013415784
-0.009562606 -0.011596064 -0.013634865
-0.0087387497 -0.011892507 -0.013719228
0.0086311782 -0.011868022 -0.013793435
0.00956902 -0.011623272 -0.013604691
0.010554476 -0.011363583 -0.013384717
0.011040237 -0.011008288 -0.013389476
-0.011440868 -0.010434215 -0.013376241
-0.010784396 -0.01067392 -0.013871071
0.010599296 -0.010796649 -0.013923245
0.01138632 -0.010466969 -0.013418251
-0.01210348 -0.0093940413 -0.013205362
-0.011649955 -0.0095705362 -0.013577307
0.011610694 -0.0095749777 -0.013614514
0.012092846 -0.0094930148 -0.013170248
-0.012433941 -0.0083698099 -0.013348327
-0.011874019 -0.0085394578 -0.013829833
0.011836426 -0.0086200964 -0.013830151
0.012358911 -0.0084067266 -0.013406294
-0.013146263 -0.0072745755 -0.01314225
-0.012718291 -0.0074940324 -0.013468782
0.012499168 -0.007617 -0.013631068
0.01314386 -0.0071901884 -0.013183658
-0.01337648 -0.0064444975 -0.013295715
-0.012808327 -0.0066137318 -0.013785645
0.012768879 -0.0065818699 -0.013839819
0.013335885 -0.0064696977 -0.013324661
-0.014084917 -0.0053786826 -0.013079923
-0.01354878 -0.0055143493 -0.013553357
0.013503893 -0.0055406257 -0.013586096
0.014158386 -0.0053223521 -0.013032491
-0.01423201 -0.0045182812 -0.013330529
-0.013788689 -0.0044569038 -0.013802223
0.013741256 -0.0045753722 -0.013794895
0.014352445 -0.004460779 -0.013236674
-0.014486894 -0.0036245137 -0.013445995
-0.013920614 -0.0038773576 -0.013938176
0.013925336 -0.0037692455 -0.013983426
0.014400193 -0.003568477 -0.013526553
-0.014489043 -0.0024251223 -0.013503956
-0.013995854 -0.0020114847 -0.013997148
0.014513993 -0.0026112825 -0.013479007
-0.014350318 -0.0015791904 -0.013642683
0.014581198 -0.0014379255 -0.013411803
-0.014425271 -0.00043782487 -0.013567732
0.01449592 -0.00045728107 -0.013497082
-0.01448137 0.000465141 -0.013511631
-0.013999245 0.00047917216 -0.013993755
0.014550339 0.00055945927 -0.013442664
-0.014411909 0.0015216657 -0.013581093
0.01454518 0.0015025666 -0.013447823
-0.014587185 0.0025093302 -0.013405816
0.014446527 0.0024925524 -0.013546473
-0.014476006 0.0034315886 -0.013500656
0.013994655 0.0036589955 -0.013965068
0.014443113 0.0034422521 -0.013518983
-0.014319171 0.0043738815 -0.013310112
-0.013813677 0.0045393868 -0.013739104
0.013768794 0.004621454 -0.013746055
0.014238962 0.0044103893 -0.013373446
-0.014119801 0.0052995128 -0.013081634
-0.013596827 0.0055236495 -0.013501007
0.012972801 0.005810515 -0.013992435
0.013529923 0.0055147088 -0.013572046
0.014121264 0.0051486557 -0.0131499
-0.013425266 0.006329699 -0.013299991
-0.012677035 0.0066850446 -0.013883973
0.012837622 0.006644093 -0.013742313
0.013336862 0.0063873706 -0.01336174
-0.013111887 0.0074312948 -0.013104185
-0.012539892 0.0074772337 -0.013654945
0.012625244 0.0075734784 -0.013525108
0.013128773 0.0073262476 -0.013135855
-0.012365935 0.0084672235 -0.013371303
-0.011820022 0.008610988 -0.013850766
0.011743024 0.0087518608 -0.013862649
0.012460224 0.0083934041 -0.013311137
-0.012167164 0.0092306221 -0.013217215
-0.011696201 0.0095413309 -0.013544559
0.011671306 0.0095895855 -0.013547149
0.012165406 0.009381623 -0.013149177
-0.011425551 0.010507583 -0.013353189
-0.010738336 0.01076411 -0.013858532
0.0107334 0.010689428 -0.01388875
0.011474825 0.010524484 -0.013294499
-0.011119779 0.011064121 -0.0132541
-0.010463888 0.011350221 -0.013444682
-0.0096432921 0.011557318 -0.013636315
-0.0087640835 0.011807099 -0.013792925
0.0086190449 0.011846975 -0.013820089
0.009503223 0.011663119 -0.013595256
0.010503409 0.011332009 -0.013442894
0.011120079 0.011285892 -0.01303203
-0.010036113 0.012000956 -0.013011107
-0.0092959292 0.012195617 -0.013158574
-0.008485171 0.012414912 -0.013314033
-0.0074300095 0.012581734 -0.013634933
-0.0066677155 0.012786751 -0.013782266
-0.0058210636 0.012979117 -0.013981245
0.0058495854 0.012996152 -0.013951026
0.0066177398 0.012806364 -0.013785752
0.0075665265 0.012513973 -0.013639594
0.0084939422 0.01240059 -0.0133243
0.0093932161 0.012147389 -0.013161834
-0.0072533977 0.013141494 -0.013156805
-0.006396594 0.013227792 -0.013466544
-0.0055096834 0.013590302 -0.013513987
-0.004487175 0.013798934 -0.013777984
-0.0032000267 0.013995154 -0.013997849
-0.00065467454 0.013995192 -0.01399781
0.0039188899 0.01395892 -0.013880674
0.0045794812 0.013756881 -0.013777371
0.0054970318 0.013523127 -0.013587009
0.0063687144 0.013441363 -0.013265858
0.0074827014 0.013123042 -0.01306927
-0.0052627376 0.014142244 -0.013076189
-0.0043195006 0.014345978 -0.013308442
-0.0034224223 0.014372073 -0.013594538
-0.0025297697 0.014423369 -0.013569633
-0.0016095705 0.014521352 -0.013471645
-0.00052870472 0.01445951 -0.013533493
0.00044076238 0.014608194 -0.013384807
0.0015767167 0.014499822 -0.01349318
0.0026165806 0.01450297 -0.013490034
0.0035549467 0.014457085 -0.013489937
0.0043217759 0.014320127 -0.013333241
-0.005010182 -0.015034065 -0.012301106
-0.0045708306 -0.015274972 -0.012263278
-0.0034784304 -0.015521795 -0.012437654
-0.0025382247 -0.015510159 -0.012482841
-0.0015737893 -0.015483278 -0.012509722
-0.00048387222 -0.015459972 -0.01253303
0.00051592954 -0.015467024 -0.012525975
0.0015608669 -0.015537181 -0.012455823
0.0025311117 -0.015477937 -0.012515066
0.003566093 -0.015502195 -0.012436891
0.0044463556 -0.015256514 -0.012339272
0.0050941678 -0.01520697 -0.01208938
-0.0074366201 -0.014088061 -0.012125548
-0.0063838302 -0.01434609 -0.012354147
-0.0055749523 -0.014634311 -0.012439812
-0.004605575 -0.014814865 -0.012707325
-0.00375546 -0.014934876 -0.012980258
-0.001316847 -0.014996847 -0.012996154
-0.00095231994 -0.014999847 -0.012993153
0.003607467 -0.014986809 -0.012956342
0.0045013754 -0.014766103 -0.012804253
0.0055796881 -0.014495173 -0.012576758
0.0063724271 -0.01438344 -0.012322068
0.0073131984 -0.01414212 -0.012128539
-0.0093674362 -0.013134466 -0.012186675
-0.0084691672 -0.013370779 -0.012365566
-0.0075768363 -0.013582629 -0.012566172
-0.0066166446 -0.013783496 -0.012809128
-0.0059423307 -0.01396869 -0.01293562
0.0066627222 -0.013812565 -0.012758761
0.0075368956 -0.013561963 -0.012605302
0.0084410338 -0.01345994 -0.012289406
0.0095708966 -0.013066651 -0.012160445
-0.011096067 -0.012163308 -0.012178626
-0.010387001 -0.012495414 -0.012346356
-0.0094774263 -0.012555772 -0.012714528
-0.0086211795 -0.012826657 -0.012839422
0.0086160703 -0.012795473 -0.012872966
0.0096357465 -0.012617442 -0.01257968
0.010500273 -0.012378389 -0.012389399
0.01106073 -0.01217356 -0.012203708
-0.012077766 -0.011183451 -0.012176785
-0.011543375 -0.011413327 -0.012481296
-0.010645545 -0.01187885 -0.012845373
0.01080264 -0.011732438 -0.012882531
0.011414579 -0.011557137 -0.012466288
0.012119484 -0.011181287 -0.01213723
-0.012419567 -0.010328527 -0.012457032
-0.011817359 -0.010779408 -0.012807989
0.011850621 -0.010630192 -0.012886843
0.012548232 -0.010239931 -0.012369621
-0.013194689 -0.0092136217 -0.012197549
-0.01258677 -0.0095456559 -0.012651991
0.012602299 -0.0096229818 -0.012600722
0.013142685 -0.0093473671 -0.012187729
-0.01333988 -0.0084268693 -0.012416013
-0.012832352 -0.0086952467 -0.01279949
0.012888035 -0.0084782774 -0.012844096
0.013342265 -0.0084053539 -0.012423572
-0.014082451 -0.0073156771 -0.012187063
-0.013542417 -0.0075703212 -0.012609394
0.013565874 -0.0075082849 -0.012614613
0.0141352 -0.0073219254 -0.012131425
-0.014407635 -0.0064494712 -0.012262261
-0.013851343 -0.0066233347 -0.012738192
0.01377802 -0.006558334 -0.012841558
0.014423411 -0.0063992278 -0.012269706
-0.015130741 -0.0051041474 -0.012160998
-0.014573535 -0.0054150457 -0.012574499
-0.013958706 -0.0058635264 -0.012982029
0.0146749 -0.005466525 -0.012449335
0.015069176 -0.0052589113 -0.012151027
-0.015275129 -0.004447551 -0.012320105
-0.014807577 -0.0046588471 -0.012689988
0.014765169 -0.0046425476 -0.012739934
0.015364168 -0.0044181109 -0.012244673
-0.015380628 -0.0034111063 -0.012586419
-0.014910556 -0.003959815 -0.01291012
0.014925467 -0.0038188207 -0.012960381
0.015549602 -0.0033849585 -0.012422753
-0.015529851 -0.0024621882 -0.01246315
0.015504987 -0.0024915154 -0.012488019
-0.015488557 -0.0014889739 -0.012504446
-0.014999354 -0.0017680797 -0.012993647
0.015592705 -0.0014711083 -0.012400298
-0.015487055 -0.00051140576 -0.012505945
0.015506769 -0.00052268378 -0.01248623
-0.015369813 0.00057412381 -0.012623185
0.015496636 0.0004620149 -0.012496367
-0.015413119 0.0015647049 -0.012579884
0.015552593 0.0015596473 -0.012440407
-0.015427593 0.0024565654 -0.012565409
0.01499525 0.0020376265 -0.01299775
0.015516393 0.0024651312 -0.012476609
-0.015531379 0.0034056101 -0.012434726
-0.014941366 0.0038341472 -0.012937398
0.014970375 0.0039876727 -0.012837425
0.015497863 0.0033723074 -0.012476321
-0.015388025 0.0044228313 -0.012218632
-0.014780688 0.0046840715 -0.012705221
0.014741604 0.0046962984 -0.012738651
0.01534989 0.0043671243 -0.01228252
-0.015018038 0.005538011 -0.012073157
-0.014481552 0.0055781701 -0.012591078
-0.013986787 0.0057846308 -0.012990414
0.013942419 0.0059047271 -0.01297927
0.014485091 0.0055548726 -0.012598308
0.015090861 0.0052901781 -0.012114887
-0.014287889 0.0064325123 -0.012389847
-0.013881935 0.0065612746 -0.012736283
0.013821105 0.006605309 -0.012776758
0.014346679 0.0065844031 -0.012260849
-0.014106004 0.0074826055 -0.012086351
-0.013441973 0.0076700305 -0.012663751
0.013625249 0.0075291833 -0.012545577
0.014165168 0.007311061 -0.01210648
-0.013416339 0.0084054023 -0.012349474
-0.01281133 0.008696381 -0.012819991
0.012910268 0.0084856311 -0.012818466
0.013353836 0.0084884483 -0.012373595
-0.013143436 0.009449061 -0.012139976
-0.01261323 0.0095953289 -0.01260257
0.012667592 0.0094461022 -0.012617189
0.013171043 0.0094347168 -0.012118998
-0.012415175 0.010399267 -0.012423905
-0.011829632 0.010549575 -0.012922554
0.011827848 0.010735903 -0.012813202
0.012448054 0.010417595 -0.01238594
-0.012115741 0.011246427 -0.012075832
-0.011555558 0.011442466 -0.012439976
-0.010796409 0.011832858 -0.012771732
0.010847032 0.011806929 -0.012764646
0.011404381 0.011535137 -0.01249848
0.012169917 0.011105469 -0.012162615
-0.011212747 0.012065264 -0.012159991
-0.01051729 0.012355355 -0.012418971
-0.0094292723 0.012713757 -0.012578798
-0.0086320201 0.012845126 -0.01281594
0.008610609 0.012874949 -0.012796016
0.0095082782 0.012670211 -0.012585829
0.010407593 0.012353766 -0.012474634
0.011018552 0.012159917 -0.012259533
-0.0093216626 0.013118253 -0.012224045
-0.0084699709 0.013410931 -0.012325039
-0.0075715818 0.013597342 -0.012553887
-0.0065268259 0.01379112 -0.012843019
0.0059210816 0.013959106 -0.012955025
0.0065525798 0.013885938 -0.012736299
0.0075390483 0.013565532 -0.012600734
0.0084313015 0.013397875 -0.012355967
0.0094221504 0.013121109 -0.012174741
-0.0071410472 0.014109848 -0.012240385
-0.0063936315 0.014292452 -0.012403253
-0.0055942978 0.014561127 -0.012504051
-0.004574297 0.014763767 -0.012772881
-0.0038748397 0.014914682 -0.012945271
-0.0025018402 0.014994362 -0.01299864
-0.0003193795 0.014998527 -0.012994474
0.00038583556 0.014996601 -0.0129964
0.0035341885 0.014982702 -0.012959329
0.0047038696 0.014769174 -0.012707581
0.0054963548 0.014501445 -0.012609005
0.0064104861 0.014407938 -0.012279977
0.0072764275 0.01413132 -0.012156337
-0.0054134475 0.015100084 -0.012048689
-0.0042946027 0.015342243 -0.012323685
-0.0036368964 0.015360307 -0.012564565
-0.002533576 0.01544248 -0.012550518
-0.0014636506 0.01543383 -0.012559172
-0.0005199578 0.015467334 -0.012525668
0.00063821615 0.015423285 -0.012569719
0.0014981437 0.015433724 -0.012559275
0.0024307079 0.015594013 -0.012398986
0.0035440875 0.01550261 -0.012447306
0.004489779 0.015324698 -0.012251017
0.0053325258 0.015089613 -0.012096561
-0.0052435454 -0.016126936 -0.011100369
-0.0044587911 -0.016255293 -0.011334743
-0.0034333523 -0.016566029 -0.01140486
-0.0025046244 -0.016482918 -0.011510083
-0.0015229118 -0.016640626 -0.011352372
-0.00049537624 -0.016441757 -0.011551245
0.00059898797 -0.016433407 -0.011559593
0.0015466264 -0.016444923 -0.011548079
0.002517045 -0.016494788 -0.011498213
0.0035181406 -0.016385702 -0.011559121
0.0045419931 -0.016374553 -0.011177028
0.0052774413 -0.01607234 -0.011139296
-0.0073690447 -0.015120204 -0.011124642
-0.0064372299 -0.015268636 -0.011406919
-0.0055050212 -0.01564203 -0.011464413
-0.0046119182 -0.015786098 -0.011733161
-0.0038488405 -0.015995726 -0.011876246
0.0038728684 -0.015905997 -0.01195487
0.0045935595 -0.015707841 -0.011819906
0.0054482725 -0.015545294 -0.011587383
0.0063364059 -0.015338589 -0.011383567
0.0071994527 -0.015167032 -0.011156204
-0.0092085786 -0.014198712 -0.011195856
-0.0084875338 -0.014329654 -0.011398198
-0.0076886676 -0.014523291 -0.011573819
-0.0066141165 -0.014778255 -0.011815538
-0.005959095 -0.014939524 -0.011957035
0.0066520683 -0.014801282 -0.011774967
0.0075269267 -0.014588869 -0.011583002
0.0084958244 -0.014388326 -0.011335696
0.0093393568 -0.014187081 -0.011147039
-0.011189261 -0.013077892 -0.011170846
-0.010471712 -0.01339946 -0.011401239
-0.0095035182 -0.013622916 -0.011635322
-0.0085722841 -0.013801049 -0.011887631
0.0086205136 -0.013829624 -0.011836762
0.0095021259 -0.013633029 -0.011625853
0.010410951 -0.013443219 -0.011383484
0.011220971 -0.013138475 -0.011078555
-0.01213751 -0.012298172 -0.011002317
-0.011513918 -0.012538283 -0.011385798
-0.010586661 -0.012890794 -0.011850461
0.01067328 -0.01287467 -0.011827195
0.011522992 -0.012444843 -0.011470166
0.012231313 -0.012061188 -0.0111455
-0.013080725 -0.011016713 -0.011340562
-0.012449794 -0.011499417 -0.011488786
-0.011790983 -0.011836839 -0.011810177
0.011821829 -0.011703649 -0.011912522
0.012548719 -0.011454077 -0.011435204
0.013135322 -0.01108593 -0.011216748
-0.013345979 -0.010527395 -0.011425542
-0.012865303 -0.010583123 -0.011869906
0.012815687 -0.010767786 -0.011789769
0.013407422 -0.010483607 -0.011382921
-0.014193978 -0.0092825787 -0.011166384
-0.013598781 -0.0095689874 -0.011629198
0.01363043 -0.0095830336 -0.011591056
0.014191632 -0.0092268139 -0.011194509
-0.014377578 -0.0083793951 -0.011400258
-0.013814009 -0.008594729 -0.011864297
0.013816864 -0.0087921722 -0.011770178
0.014422362 -0.0083909184 -0.011350149
-0.015176587 -0.0072583631 -0.011119419
-0.01457653 -0.0076414952 -0.011542385
0.014619248 -0.0075355684 -0.011548625
0.015090602 -0.0072408165 -0.011213514
-0.015332062 -0.0062930356 -0.011410142
-0.014707193 -0.0065844473 -0.011900315
0.014731157 -0.0067592449 -0.011795554
0.015326251 -0.0064458083 -0.011345336
-0.016053472 -0.0052143135 -0.011187345
-0.015488829 -0.0056010038 -0.011573252
-0.01498639 -0.0058560823 -0.011957785
0.015611961 -0.0055298191 -0.011483024
0.016107569 -0.0053050411 -0.011091311
-0.016396336 -0.0044033625 -0.011219321
-0.015802054 -0.0045742081 -0.011734635
0.015798578 -0.0046298001 -0.011712416
0.016287932 -0.00437422 -0.011341197
-0.016502146 -0.0036098647 -0.011435238
-0.015868535 -0.0039872504 -0.01193946
0.015888313 -0.0039044011 -0.011957978
0.016430974 -0.0034797229 -0.011540776
-0.016556343 -0.0025576449 -0.011436659
0.015997469 -0.0027398788 -0.011995532
0.016492868 -0.0025206201 -0.011500134
-0.016542492 -0.0015042606 -0.011450508
0.016523909 -0.0015387381 -0.011469091
-0.016476076 -0.00038394157 -0.011516925
0.016526403 -0.00047866759 -0.0114666
-0.016551876 0.00061271462 -0.011441126
0.0165041 0.00048311663 -0.011488903
-0.016466053 0.0014734605 -0.011526949
0.016548676 0.0015101426 -0.011444325
-0.016490845 0.0024998256 -0.011502154
0.016468925 0.0025547438 -0.011524078
-0.01643325 0.003427973 -0.011523833
0.015937464 0.0037283518 -0.011990202
0.016525496 0.0034223751 -0.011441428
-0.016330414 0.0044773216 -0.01125106
-0.015859788 0.004724782 -0.011607301
0.015766693 0.0045700273 -0.011771927
0.016324086 0.0043446925 -0.01131869
-0.016170179 0.0052563315 -0.011051215
-0.015591431 0.0054966905 -0.011518862
-0.014947508 0.0059963698 -0.011931824
0.014985668 0.0058036139 -0.011982758
0.015621028 0.0055764648 -0.011452393
0.016115151 0.0052507659 -0.011108815
-0.01534658 0.0064243809 -0.011334912
-0.014826871 0.0066716918 -0.011740309
0.014811441 0.0065794908 -0.011798356
0.015340914 0.0065102712 -0.011300879
-0.015166092 0.0074200667 -0.011055171
-0.014648978 0.0075775287 -0.011499502
0.014564879 0.0076243863 -0.011561939
0.015177614 0.0072678826 -0.011113992
-0.01441294 0.008425924 -0.01134339
-0.01389469 0.0082605127 -0.011938097
0.013858924 0.008455893 -0.011883555
0.014388362 0.0084014414 -0.011379283
-0.014187211 0.0093471184 -0.01114332
-0.013576963 0.0095829656 -0.011644552
0.013586744 0.0094978809 -0.011674101
0.014162151 0.0094792163 -0.011107321
-0.013333792 0.010490256 -0.01145552
-0.012846908 0.010723078 -0.011808571
0.012784048 0.010667596 -0.011908222
0.013436269 0.010533353 -0.011321378
-0.013298272 0.01103448 -0.011105249
-0.012435979 0.011518922 -0.011483099
-0.011845864 0.01183051 -0.011761626
0.011789504 0.01185217 -0.011796329
0.012545271 0.011436028 -0.0114567
0.013109582 0.011149621 -0.011178799
-0.01225597 0.012044063 -0.011137968
-0.011419779 0.012459034 -0.011559183
-0.010773301 0.012872407 -0.011762072
0.010695346 0.012802864 -0.011855689
0.011445326 0.012458419 -0.011534253
0.012160288 0.012102318 -0.011175393
-0.011168206 0.013160933 -0.011108862
-0.010531937 0.01340773 -0.011354265
-0.009521543 0.013587846 -0.01166206
-0.008514991 0.013840296 -0.011874865
0.00866374 0.013783607 -0.011862799
0.0096194223 0.013566902 -0.011637763
0.010440935 0.013372735 -0.011442184
0.011103757 0.013119388 -0.011214855
-0.0092512323 0.014250549 -0.011124304
-0.0083847027 0.014481428 -0.011293957
-0.0075381608 0.014633001 -0.011533677
-0.0066395015 0.014765672 -0.011816386
0.0065891589 0.014779652 -0.011825674
0.0076010008 0.014569414 -0.011568218
0.0085042063 0.01440301 -0.011317137
0.0092683164 0.01417256 -0.011194395
-0.0072510079 0.01511894 -0.011180466
-0.0064253574 0.015324618 -0.011356424
-0.0054584104 0.015541891 -0.011586099
-0.0045730858 0.015767625 -0.011769584
-0.0039209425 0.015893612 -0.011945031
0.0038089831 0.015966995 -0.0119234
0.0044778395 0.015831573 -0.01174966
0.0055366457 0.015519849 -0.01157198
0.0063921781 0.015245004 -0.011451377
0.0071860491 0.015188962 -0.011140469
-0.0053491304 0.016138885 -0.011039615
-0.0043658004 0.016301148 -0.011331875
-0.0035242429 0.016459486 -0.011485483
-0.0025151863 0.016591914 -0.011401087
-0.0013791844 0.016535917 -0.011457083
-0.00046359203 0.016529301 -0.011463704
0.00057685521 0.016431389 -0.011561614
0.001378437 0.016514061 -0.011478941
0.0025424333 0.016438581 -0.011554421
0.003504226 0.01638516 -0.011564458
0.0044192816 0.016300578 -0.011307722
0.0052235229 0.016097929 -0.01113863
-0.0042362311 -0.017163964 -0.010268182
-0.0035291652 -0.017346328 -0.010458815
-0.0025263387 -0.017384714 -0.01046704
-0.0015255185 -0.017380059 -0.010486647
-0.00058966095 -0.017299481 -0.010597123
0.00055650546 -0.017377196 -0.010471572
0.0014669476 -0.017426277 -0.01040032
0.002549663 -0.017363818 -0.010491383
0.0033348908 -0.017311506 -0.010547437
0.0042339778 -0.017161768 -0.010274495
-0.0063925148 -0.0161673 -0.010258916
-0.0054573319 -0.016494146 -0.010458622
-0.0044955718 -0.016828444 -0.010667115
-0.0037987067 -0.016934428 -0.010960717
0.0011552282 -0.016998064 -0.010994939
0.0038212624 -0.016977858 -0.01090686
0.0046952283 -0.016725967 -0.010688717
0.0053822924 -0.016512426 -0.01050897
0.0063325376 -0.016185176 -0.010280219
-0.0083727688 -0.015191222 -0.010388749
-0.0074991891 -0.015490342 -0.0105521
-0.0066768951 -0.015789848 -0.010727752
-0.0058262958 -0.015970234 -0.010987708
0.0066189193 -0.015911806 -0.010573497
0.0074240267 -0.015526408 -0.010562628
0.0083392998 -0.015138224 -0.010521608
-0.010335172 -0.014261669 -0.010427434
-0.0094796587 -0.014592814 -0.010529344
-0.0086598024 -0.014865126 -0.010744964
0.0086058378 -0.014851901 -0.010784712
0.009495738 -0.014565556 -0.01056398
0.010444263 -0.014207531 -0.01042872
-0.011391172 -0.013452962 -0.010394754
-0.010706417 -0.013840164 -0.010776307
0.010938196 -0.013815708 -0.010546457
0.011408809 -0.013402513 -0.010445544
-0.012381586 -0.012368098 -0.010565953
-0.011867662 -0.012831312 -0.010688814
0.011842517 -0.012774786 -0.010767994
0.012349959 -0.012518704 -0.01034146
-0.013347421 -0.011440909 -0.010489623
-0.012806446 -0.011842872 -0.010703928
0.012756931 -0.011837813 -0.010836844
0.013324876 -0.011441593 -0.010533064
-0.014232421 -0.010549246 -0.010296379
-0.01374568 -0.010826676 -0.010833949
0.013820588 -0.010789036 -0.010772182
0.01418082 -0.010421849 -0.010492034
-0.015030997 -0.0090014096 -0.010131929
-0.014545619 -0.0095300237 -0.010574434
0.014591895 -0.0094991531 -0.010552654
-0.01517418 -0.0084573515 -0.010356292
-0.014817105 -0.0086982781 -0.010781511
0.014859899 -0.0085093332 -0.010852
0.015179412 -0.0083881868 -0.01044739
-0.015505572 -0.0075239772 -0.010530943
0.015524716 -0.00749336 -0.010551141
0.016010491 -0.0071290913 -0.01000172
-0.016153691 -0.0064124633 -0.010286197
-0.015762439 -0.0065871575 -0.010825499
0.015860042 -0.0066313962 -0.010660443
0.016193677 -0.0063282968 -0.010353507
-0.016438279 -0.0054690456 -0.010559756
-0.015947694 -0.0059060669 -0.010973379
0.015981276 -0.0059895106 -0.010901224
0.016493024 -0.0055178814 -0.010467992
-0.017125599 -0.00433566 -0.010261269
-0.016717579 -0.0045381207 -0.01081623
0.016769381 -0.0046588522 -0.010666229
0.017103108 -0.0043508215 -0.010361779
-0.017299714 -0.003476229 -0.010564813
-0.016984046 -0.003702882 -0.010944548
0.016995603 -0.0033379502 -0.010997399
0.017312588 -0.0035653966 -0.010504891
-0.017296402 -0.0024752768 -0.010611345
0.017420396 -0.0024291396 -0.010415159
-0.017364129 -0.0016288523 -0.01049793
0.017324576 -0.001570772 -0.01056569
-0.017335249 -0.00045176718 -0.010549964
0.017371142 -0.00049802248 -0.01049008
-0.017351471 0.00056992966 -0.010523803
0.017341005 0.00047995339 -0.010528591
-0.017362854 0.0014712523 -0.010511411
0.017399581 0.0014418839 -0.010444519
-0.017356221 0.0024198534 -0.010517164
-0.016994765 0.0020009133 -0.010998236
0.017366039 0.0025258537 -0.010498445
-0.017297871 0.0035047191 -0.010535644
-0.01699993 0.0039500953 -0.010825239
0.01692071 0.0038767653 -0.010938356
0.017307248 0.0034352755 -0.010559694
-0.017194763 0.0042758617 -0.010260251
-0.016778635 0.0046081152 -0.010693544
0.016832003 0.0045377137 -0.010609107
0.01709854 0.0042708013 -0.010380211
-0.016597383 0.0053582052 -0.01042041
-0.015968261 0.0058812178 -0.010964295
0.01642728 0.0055120904 -0.010546529
-0.016193097 0.0063984389 -0.010296495
-0.015846919 0.0066626887 -0.01066527
0.015803918 0.006722386 -0.010659137
0.016213613 0.0062311552 -0.010336005
-0.016008465 0.0070839082 -0.010051155
-0.015514225 0.0075184801 -0.010559441
0.015571494 0.0075275246 -0.010405832
-0.015218754 0.0083966181 -0.010355468
-0.01482519 0.0086840009 -0.010783493
0.014791731 0.0087510953 -0.010792694
0.015183268 0.0082833795 -0.010504888
-0.015064464 0.0090296697 -0.010084532
-0.014644196 0.0094723552 -0.010470732
0.014567383 0.00954 -0.010543994
-0.014212986 0.010426388 -0.010449165
-0.013799789 0.010689929 -0.010874267
0.013801032 0.010787276 -0.010816482
0.014291397 0.010367167 -0.010352435
-0.013378398 0.011423487 -0.010449453
-0.01284378 0.011777977 -0.010743019
0.012813074 0.011816815 -0.010766591
0.013314937 0.011498132 -0.010448493
0.0140246 0.011003863 -0.010000629
-0.012435846 0.012412755 -0.010369908
-0.011874088 0.012889946 -0.010535191
0.01177851 0.012822517 -0.010804746
0.012401915 0.012387801 -0.010489688
-0.011405306 0.013387744 -0.010488655
-0.01071371 0.013860936 -0.010739597
0.010739058 0.013799631 -0.010797025
0.011471212 0.013344841 -0.010418678
-0.010367621 0.014269211 -0.010385931
-0.0095019881 0.014616009 -0.010499977
-0.00873469 0.014867033 -0.010696171
0.0085684657 0.014852888 -0.010815325
0.009475315 0.014628202 -0.010487814
0.01038849 0.014192049 -0.0105009
-0.0090855155 0.015054364 -0.010036493
-0.0084048742 0.015238557 -0.01033038
-0.0075678607 0.015494508 -0.010545761
-0.0065577235 0.015823862 -0.010776824
-0.005772097 0.015995877 -0.010987117
0.0065701259 0.015794719 -0.010772133
0.007415954 0.015576276 -0.010483854
0.0083932681 0.015175072 -0.010414876
-0.0063954736 0.016170463 -0.010339613
-0.005407291 0.016531771 -0.010486564
-0.0046349317 0.016748786 -0.010708077
-0.0039955312 0.016823182 -0.010980985
-0.0019556796 0.016995322 -0.010997681
0.0038211977 0.01690354 -0.01098121
0.0046933535 0.01683202 -0.010508965
0.0055777966 0.01641874 -0.010501947
0.0064382982 0.016144194 -0.010281105
-0.0044009918 0.017160542 -0.01021819
-0.0035344486 0.017268168 -0.010607166
-0.0023712632 0.017323498 -0.010563023
-0.0014832062 0.017355977 -0.010524306
-0.0005759793 0.017398318 -0.010443837
0.00053306209 0.017384425 -0.010479487
0.0016001484 0.017320674 -0.010584815
0.002501149 0.017370325 -0.010497518
0.0034184004 0.017359084 -0.010480613
0.0041966839 0.017157182 -0.0103314
-0.0033892856 -0.018067691 -0.009128469
-0.0024656823 -0.018043114 -0.0091989525
-0.0014378511 -0.018068718 -0.009125527
-0.00056185201 -0.018075736 -0.0091054002
0.00032259917 -0.018054835 -0.0091653327
0.0014858427 -0.018062651 -0.0091429241
0.002414556 -0.018046573 -0.0091890348
0.0033766835 -0.018051893 -0.0091384361
-0.0054014325 -0.017101279 -0.0092301099
-0.0045537078 -0.01744765 -0.0094189933
-0.0036038223 -0.017803373 -0.0096077872
-0.002498412 -0.017837686 -0.0096675009
-0.0014580536 -0.017876593 -0.0096022803
-0.00046615498 -0.017832311 -0.0096842758
0.00069125282 -0.017850092 -0.009646357
0.0016540621 -0.017866448 -0.0096168164
0.0023889195 -0.017802564 -0.009736863
0.0035733965 -0.017784389 -0.0096211815
0.0045025619 -0.01745116 -0.0094719166
0.00528403 -0.017165521 -0.0092187384
-0.0073589026 -0.016169468 -0.0092878314
-0.0065667033 -0.016453883 -0.0094647147
-0.0056347041 -0.016798588 -0.0096509634
0.0056945425 -0.016796067 -0.009596576
0.0064661517 -0.016477577 -0.0095140059
0.0074401232 -0.016087046 -0.0093849283
-0.010008465 -0.015037267 -0.0090877321
-0.0094444146 -0.015192435 -0.0093160858
-0.0084577352 -0.015571029 -0.009483695
-0.0077489358 -0.015823029 -0.0096473061
0.0077214045 -0.015797114 -0.0097309034
0.0085244533 -0.015570905 -0.0094172396
0.0093547059 -0.015195389 -0.0093993973
-0.01113389 -0.014161814 -0.009422469
-0.010619305 -0.014596099 -0.0093822591
-0.0096689146 -0.014891706 -0.0097421939
0.0097602261 -0.014816484 -0.0098136207
0.010529555 -0.014549937 -0.0095762722
0.011139629 -0.014171569 -0.009388946
-0.012126272 -0.013199669 -0.0093570547
-0.01167449 -0.013608167 -0.0094506964
0.011632932 -0.013615301 -0.0095251696
0.012165544 -0.013194809 -0.0092826011
-0.013142651 -0.01215389 -0.0094206538
-0.012588892 -0.012626646 -0.009595897
0.012649842 -0.012522836 -0.0096886223
0.013127367 -0.012197753 -0.0093588242
-0.014103506 -0.011113213 -0.0095933471
-0.013554846 -0.011689423 -0.0095337499
0.01364504 -0.011580174 -0.0095749674
0.014114976 -0.011191782 -0.0093985507
-0.015010732 -0.010135362 -0.0090812035
-0.014523298 -0.010638689 -0.0095454017
0.014566513 -0.010503038 -0.0095803533
-0.015243816 -0.0093079088 -0.009392716
-0.014939486 -0.0097137084 -0.0096361944
0.014877995 -0.0098001193 -0.0097050164
0.015168416 -0.0094163166 -0.0094799418
-0.016017806 -0.0080099963 -0.0090297442
-0.015633492 -0.0083775781 -0.009476847
0.015631735 -0.0084770145 -0.0094478754
0.016002374 -0.0080781318 -0.0090696989
-0.016145973 -0.0074206782 -0.0093305102
-0.015850991 -0.0076181828 -0.0097552622
0.015854066 -0.0078163678 -0.009642398
0.016227705 -0.007433353 -0.0092420569
-0.016557124 -0.0064350083 -0.0094231972
0.016544046 -0.0065498259 -0.0094623705
-0.017161934 -0.0053948611 -0.0091645652
-0.016857048 -0.0056262654 -0.0095772957
0.01682684 -0.0057547339 -0.0096591441
0.017127294 -0.0055001294 -0.0092892591
-0.017478587 -0.0044517242 -0.009472087
0.017523924 -0.0043871896 -0.0095645422
-0.018038405 -0.0033560691 -0.0092124594
-0.017814573 -0.003479189 -0.0095983185
0.017735289 -0.003606508 -0.0097489776
0.018057982 -0.0032697786 -0.0091445055
-0.018016988 -0.0025437097 -0.0092738755
-0.017819958 -0.0025217177 -0.0097136237
0.017828533 -0.0023402628 -0.0096905744
0.018066918 -0.0023440665 -0.0091306847
-0.018026156 -0.0016635146 -0.0092475824
-0.017839301 -0.0014761878 -0.0096670073
0.017839976 -0.0017223265 -0.0096763996
0.018051129 -0.0014813074 -0.0091759646
-0.018039361 -0.00075938989 -0.0092097139
-0.017825251 -0.0004857734 -0.0096964687
0.01784605 -0.00032612417 -0.0096612517
0.0180691 -0.00055835187 -0.0091244271
-0.018049598 0.00062526116 -0.0091803586
-0.017895663 0.00055405864 -0.0095625306
0.017822323 0.00041455566 -0.0097013097
0.018055473 0.00063223112 -0.0091635082
-0.018049482 0.001503503 -0.0091806864
-0.017883135 0.0015120407 -0.0095873177
0.017858405 0.0015965782 -0.0096349241
0.018043727 0.0012907836 -0.0091971913
-0.018063584 0.0025351124 -0.0091402503
-0.017813195 0.0024659496 -0.0097238375
0.017797155 0.0024565419 -0.0097516626
0.018070523 0.0024759991 -0.0091203535
-0.018052202 0.0031813416 -0.0091728922
-0.017789612 0.0036411625 -0.0096232751
0.017813969 0.0035089499 -0.0095945662
0.018063286 0.0031208987 -0.0091411006
-0.017470157 0.0044996068 -0.0095588341
0.017409042 0.0044894619 -0.0095669357
-0.017173501 0.0054719956 -0.009220521
-0.016830062 0.0057181162 -0.0096920198
0.016829954 0.0055845669 -0.0096739801
0.017101794 0.005265899 -0.0094142752
-0.016539235 0.006548353 -0.0094739283
0.016487099 0.0064696935 -0.0095357904
-0.016191063 0.0073921685 -0.0093600685
-0.015884796 0.0077839517 -0.0096103875
0.015861679 0.0076836688 -0.0096698524
0.016189221 0.0073285121 -0.0093291588
-0.015583878 0.0084334621 -0.0095917648
0.015568749 0.0084701087 -0.0095226681
-0.015250058 0.0093232002 -0.0094018914
-0.014952887 0.0095733516 -0.0097747743
0.014891971 0.0097814463 -0.0096699828
0.015159967 0.009448084 -0.0094324499
-0.015077647 0.010022049 -0.0090645095
-0.014596201 0.010498288 -0.0095460964
0.014588537 0.010558856 -0.0094863614
0.015016889 0.010165375 -0.0090394374
-0.014159058 0.011224623 -0.0092321318
-0.01361197 0.011593131 -0.0096184835
0.013542748 0.011625187 -0.0096988855
0.014199805 0.011174028 -0.0092534376
-0.013197507 0.012152277 -0.0093054632
-0.012646979 0.012560334 -0.0096136928
0.012599133 0.012639071 -0.0095468629
0.013234515 0.012138458 -0.0092553021
-0.012132798 0.01322748 -0.0092827631
-0.01159018 0.013639618 -0.0095650507
0.011684235 0.013578377 -0.0094940504
0.012100646 0.013199184 -0.0094135357
-0.011213013 0.01414507 -0.009287511
-0.010513633 0.01458363 -0.009516295
-0.0096872114 0.01487717 -0.009795594
0.0097147096 0.014903466 -0.0097103398
0.010541408 0.014561724 -0.0095721977
0.011224609 0.014119837 -0.0093170172
-0.0093398849 0.015239822 -0.0093713598
-0.0084866034 0.01564724 -0.0093751987
-0.0077764606 0.015840502 -0.009693848
0.007686065 0.015832376 -0.0097286478
0.0084537342 0.015600081 -0.0094731208
0.0094445385 0.015198193 -0.0093561616
0.010077239 0.015039335 -0.0090775834
-0.0073047266 0.016220771 -0.0093605677
-0.0066108061 0.016552035 -0.0093638301
-0.0057358276 0.016807022 -0.0097128805
0.0049782097 0.016974265 -0.0099575073
0.0055798218 0.016844405 -0.0096484274
0.006472352 0.016462073 -0.0095854104
0.0073329532 0.016201688 -0.0092988806
0.008037189 0.016018799 -0.0090014655
-0.0054273685 0.017122092 -0.0093576368
-0.0044800788 0.017516818 -0.0094804624
-0.0035459204 0.017839409 -0.0095739746
-0.0027049985 0.017861106 -0.0096392874
-0.0014568635 0.017807152 -0.0097298976
-0.00056806917 0.017879903 -0.0095994426
0.00057557679 0.017872404 -0.0096188495
0.0015880902 0.017883554 -0.0095920926
0.0024092956 0.017853435 -0.0096459351
0.0035058779 0.017849416 -0.0095889168
0.0044618971 0.017459301 -0.009506667
0.0053631854 0.017137595 -0.0092458511
-0.0033635905 0.018040318 -0.0091968011
-0.0024264606 0.018054446 -0.0091664558
-0.0017516247 0.018060789 -0.0091482652
-0.00061545952 0.018076915 -0.009102013
0.00052067684 0.018057285 -0.0091583151
0.0016661335 0.018032474 -0.0092294626
0.0024560068 0.018058188 -0.0091557205
0.0034799948 0.018020624 -0.0091963923
-0.0042932988 -0.018121468 -0.0082679577
-0.0036636032 -0.018208792 -0.0085715521
-0.0023446276 -0.018325778 -0.0083883284
-0.0014050412 -0.018259244 -0.0085791405
-0.00050314085 -0.018304849 -0.0084483484
0.00049168983 -0.018290248 -0.0084902244
0.0014921918 -0.018268159 -0.0085535757
0.0024996214 -0.018274078 -0.0085365912
0.003456 -0.018292258 -0.0084153153
0.0043131681 -0.018130342 -0.0082226284
-0.0062907641 -0.017118448 -0.0083066346
-0.005497952 -0.017427573 -0.008511316
-0.0046806261 -0.017803358 -0.0086453101
0.0047621606 -0.017774144 -0.0086147347
0.0054902043 -0.01743681 -0.0084996726
0.0063276938 -0.017146781 -0.0082087936
-0.0082821045 -0.016096484 -0.0085225264
-0.0075074225 -0.016462769 -0.0085047716
-0.0065961629 -0.01681044 -0.0086638657
0.0059751929 -0.016964477 -0.0089515848
0.0065041487 -0.016859535 -0.0086496603
0.0075107343 -0.016462404 -0.0085022459
0.0082719745 -0.016144609 -0.0084285447
-0.010379094 -0.015166983 -0.0084329089
-0.0095097497 -0.015528647 -0.0085233692
-0.008572151 -0.015838975 -0.0087895887
0.0087421378 -0.015803484 -0.0086963847
0.0095567899 -0.015546622 -0.0084374426
0.01020659 -0.015246223 -0.0084375367
-0.011287131 -0.014461379 -0.0084428424
-0.010730646 -0.014831577 -0.0087353755
0.010698774 -0.014904983 -0.0086274846
0.011459759 -0.014272226 -0.0084785912
-0.012397126 -0.013367238 -0.0084085399
-0.011871992 -0.013845195 -0.0085106101
0.011868892 -0.013877293 -0.0084478725
0.01230698 -0.013421635 -0.0084858863
-0.013386973 -0.012336488 -0.0084970379
-0.012834866 -0.012850172 -0.0085801631
0.012808707 -0.012846012 -0.008645758
0.013302851 -0.012422212 -0.0084935734
-0.014318963 -0.011406628 -0.0084924307
-0.013832528 -0.011849782 -0.0085860603
0.013897632 -0.011729152 -0.0087061888
0.014305742 -0.011478484 -0.0083655724
-0.015246115 -0.010353569 -0.008355855
-0.014915206 -0.010765385 -0.0085434578
0.014881863 -0.010714688 -0.008659563
0.015161529 -0.010263757 -0.0086365119
-0.015624508 -0.0094744358 -0.0084383525
0.015580272 -0.0096121803 -0.0084206061
-0.01617568 -0.0084885154 -0.0082393028
-0.01584054 -0.0087197367 -0.0087152971
0.015909497 -0.0086546028 -0.0086879488
0.016196072 -0.0084613096 -0.0082804225
-0.016535936 -0.0074588419 -0.0084805395
0.016556231 -0.0075069289 -0.0084797135
-0.017142039 -0.0062396461 -0.0083917873
-0.016887806 -0.0065496848 -0.0086230971
0.016837707 -0.0067782723 -0.0086182486
0.017135542 -0.0063274996 -0.0084446007
-0.017457604 -0.0055238423 -0.0084494557
0.017479863 -0.0054148966 -0.0086353188
-0.01813408 -0.0043192613 -0.0082058199
-0.017805938 -0.0046553253 -0.0086600306
0.017858392 -0.0046051112 -0.0086397137
0.018139301 -0.0042996262 -0.0082104793
-0.018230615 -0.003497568 -0.0085848123
0.01799304 -0.0039843544 -0.0089451969
0.018286213 -0.0033898146 -0.0084628155
-0.018292081 -0.0025089032 -0.0084849671
0.018292533 -0.0025104522 -0.0084836753
-0.01828533 -0.0015863288 -0.0085043237
0.018293872 -0.0016065597 -0.0084798243
-0.018294469 -0.00059019466 -0.0084781209
0.018297359 -0.00045809551 -0.0084698293
-0.018285712 0.0004304277 -0.0085032247
0.018286042 0.00044175753 -0.0085022878
-0.018282816 0.0015214909 -0.0085115349
0.018250829 0.0015641805 -0.0086032664
-0.018261136 0.0024008264 -0.0085737091
0.018275889 0.002499094 -0.0085314056
-0.018280471 0.0035290059 -0.008432284
0.017998029 0.0039910921 -0.0089241583
0.018230265 0.0034516291 -0.0086099543
-0.018111069 0.0043403869 -0.0082506845
-0.017855311 0.0045723361 -0.0086874068
0.017854851 0.0045486335 -0.0086763948
0.018051751 0.0045121899 -0.0082489904
-0.01743626 0.0055635408 -0.0085780891
0.017387891 0.005501369 -0.008610731
-0.017178794 0.0063092941 -0.0083721215
-0.016837982 0.0067534065 -0.0086425385
0.016859995 0.0065580374 -0.0086730393
0.017172651 0.0062099495 -0.0083565731
-0.016537897 0.0074683428 -0.0085567385
0.016515726 0.0075217965 -0.0084619978
-0.016224468 0.0083761895 -0.0083060125
-0.015835015 0.0087087983 -0.0087899081
0.015815603 0.0087304674 -0.0087569598
0.016194787 0.0083801281 -0.0083039319
-0.015563287 0.0096106865 -0.0084577119
0.015567684 0.0095565543 -0.0084776971
-0.015286896 0.010253278 -0.0083881347
-0.014847709 0.010737185 -0.0087285861
0.014844527 0.010799987 -0.0086107375
0.015296929 0.010322609 -0.0082848193
-0.014319152 0.011357419 -0.0085984832
-0.013820176 0.011874001 -0.0085603921
0.013860797 0.011807251 -0.0086169196
0.014334904 0.011428867 -0.0084098252
-0.013314337 0.012474736 -0.008355082
-0.012771617 0.01285591 -0.0087045804
0.012773831 0.012860578 -0.0086896941
0.013403199 0.012331437 -0.0084728589
-0.012382787 0.013318124 -0.0085458234
-0.011767987 0.013830324 -0.008767793
0.011846462 0.013791814 -0.008681329
0.012283588 0.013484638 -0.008400186
-0.01138082 0.014400871 -0.0083710626
-0.01077606 0.014942671 -0.0084306402
0.010739619 0.014817369 -0.0087804813
0.011470228 0.014268933 -0.0084630698
-0.010361952 0.015217819 -0.0083486261
-0.009533016 0.015529912 -0.0085433936
-0.0086990232 0.015853591 -0.0087083867
0.008658669 0.01584284 -0.0087693585
0.0094665335 0.015541606 -0.0086188484
0.010416727 0.015238635 -0.0082723014
-0.008338782 0.016146081 -0.0084493468
-0.0074451044 0.016511459 -0.0085860435
-0.0066480543 0.016836224 -0.0087103555
0.0059667146 0.016999168 -0.0089527834
0.0066847573 0.016846558 -0.0085789179
0.0075696232 0.01649121 -0.0084670279
0.0082959924 0.016204387 -0.0083650099
-0.0063663162 0.017185917 -0.0082461098
-0.0055183093 0.017448323 -0.008561031
-0.0047563282 0.017855104 -0.0084807454
0.0047148331 0.017835887 -0.0085529666
0.0055472683 0.017432531 -0.0084812045
0.0062666493 0.017152788 -0.0083433408
-0.00432372 0.018101644 -0.0082943803
-0.0034533467 0.018276583 -0.0084756138
-0.0024918576 0.01829249 -0.0084837917
-0.0015612144 0.018284671 -0.008506218
-0.00061720057 0.018266102 -0.0085594663
0.00054958672 0.018260824 -0.0085746106
0.0014558494 0.018288564 -0.0084950496
0.0024804007 0.01825447 -0.0085928226
0.0034401028 0.018218128 -0.008629893
0.0042796368 0.01812733 -0.0082647996
-0.0052798465 -0.018140379 -0.0072271666
-0.004482857 -0.018308602 -0.0075417254
-0.0035341105 -0.018598557 -0.0075127054
-0.0024551423 -0.018654911 -0.0074444334
-0.0014419542 -0.018617939 -0.0075504691
-0.00054628664 -0.018632231 -0.0075094863
0.0005228701 -0.018632684 -0.0075081871
0.0013663992 -0.018656559 -0.0074397125
0.002475891 -0.018653953 -0.0074471864
0.0036479649 -0.018535137 -0.0076068128
0.0044449572 -0.018320553 -0.0075453608
0.005262123 -0.018093027 -0.0073806872
-0.0072780652 -0.017109571 -0.0073407246
-0.0064555043 -0.017438943 -0.0075266152
-0.005631167 -0.017796272 -0.0077095982
0.0056877211 -0.017785704 -0.0076690428
0.0065236981 -0.017409382 -0.0075131315
0.0073238066 -0.01709469 -0.0073231524
-0.0093614496 -0.016227566 -0.0071595968
-0.0084867505 -0.016507212 -0.0074292929
-0.007675 -0.016802276 -0.0076026879
0.0069637061 -0.016969783 -0.0079515884
0.0076142312 -0.016833156 -0.0075966483
0.0085577238 -0.016389927 -0.0076120608
0.009349755 -0.016148621 -0.0073420815
-0.011182377 -0.015112443 -0.0072609261
-0.010556931 -0.015437631 -0.0076068444
-0.0097754905 -0.015831495 -0.0076024286
0.0096578114 -0.015831117 -0.0077209347
0.010475279 -0.015579634 -0.0074243331
0.011137451 -0.01523076 -0.0071021519
-0.012098491 -0.014197564 -0.007258256
-0.011541747 -0.014606506 -0.0075780167
0.010993653 -0.014979268 -0.007957343
0.011569485 -0.014551602 -0.0076367906
0.012115596 -0.01416805 -0.0072851013
-0.013146375 -0.013121009 -0.0073202844
-0.012579541 -0.013619754 -0.0074675935
0.01268155 -0.013450035 -0.0076140813
0.01317541 -0.013204074 -0.0070777633
-0.014154908 -0.012129057 -0.0072844117
-0.013542556 -0.012650342 -0.0074814348
0.013633492 -0.012549311 -0.0075032725
0.014159602 -0.012144265 -0.0072413543
-0.015140795 -0.011179432 -0.0072059608
-0.014595051 -0.011588544 -0.0075015612
0.014580229 -0.011531703 -0.0076565938
0.01508492 -0.011139015 -0.0074142804
-0.015602013 -0.01049193 -0.0074184192
0.015453761 -0.010609706 -0.0075500431
-0.016130781 -0.0093357861 -0.007516271
-0.015846865 -0.0097164214 -0.007741435
0.015872993 -0.0096375188 -0.0077815652
0.016235836 -0.0093510551 -0.0073073162
-0.016485043 -0.0084675113 -0.0076144389
0.016561661 -0.0085499967 -0.0074252663
-0.017159794 -0.0072366265 -0.0073938007
-0.016808974 -0.0077005229 -0.007678228
0.01687224 -0.0077456003 -0.0075785187
0.017167225 -0.007418666 -0.0072870096
-0.01749981 -0.0064561698 -0.0074498658
0.01751616 -0.0064733303 -0.0075007873
-0.018050458 -0.0056249546 -0.0071399352
-0.017791109 -0.0057160188 -0.0076299566
0.017815471 -0.0056268 -0.0077124401
0.018129759 -0.0052583474 -0.0072791306
-0.018309612 -0.004433122 -0.0075885719
0.018320806 -0.0044678771 -0.0075217085
-0.018598998 -0.0035108137 -0.0075356299
0.018623795 -0.0035394749 -0.0074381805
-0.018620705 -0.0026489112 -0.0075425371
0.018669587 -0.0024411599 -0.007402353
-0.018665487 -0.0015905082 -0.0074141189
0.018644586 -0.0014930172 -0.0074740443
-0.018619789 -0.00046743776 -0.0075451653
0.018596634 -0.00048772723 -0.0076115648
-0.018640617 0.00049361895 -0.0074854372
0.018608151 0.00048053879 -0.0075785411
-0.018632585 0.0014541732 -0.0075084656
0.018656218 0.0014965003 -0.0074406951
-0.018626012 0.0025331762 -0.0075273211
0.018613771 0.0025209703 -0.0075624227
-0.018607344 0.0033563923 -0.007541975
0.018597085 0.003562425 -0.0075029377
-0.018292034 0.0045311418 -0.0075409524
0.018381136 0.00438071 -0.0074358694
-0.018115371 0.0052945353 -0.0072841966
-0.017836664 0.0057479846 -0.0075460142
0.017912718 0.0055608861 -0.0075543718
0.018090896 0.0052633053 -0.0073856195
-0.017554469 0.0063889734 -0.0075048236
0.017414372 0.0065176492 -0.0075670267
-0.017116228 0.0073584332 -0.0074541555
-0.016873632 0.0076734941 -0.0076477095
0.016863417 0.0076075839 -0.0076542767
0.017196704 0.0072870781 -0.0072682062
-0.016555442 0.0085215196 -0.00746678
0.016480682 0.0085427463 -0.0075510126
-0.016173545 0.0093979836 -0.0073909792
-0.015897742 0.0097462824 -0.0076209176
0.01583329 0.00982018 -0.0076697315
0.016191019 0.0093640881 -0.0073633804
-0.01600614 0.010039425 -0.0071005113
-0.015540109 0.010535941 -0.0074959765
0.015639633 0.010487845 -0.0073604425
-0.01516958 0.011097533 -0.0073208683
-0.014666211 0.011557845 -0.0074140201
0.014596541 0.011575037 -0.0075275605
0.015057323 0.011141094 -0.0074694925
-0.014139677 0.012191634 -0.0071819834
-0.013482379 0.01265688 -0.0075974781
0.013616472 0.012580936 -0.0074716755
0.014175336 0.012182998 -0.007123522
-0.013062625 0.01323346 -0.0072581917
-0.012533122 0.013677594 -0.0074428814
0.012711474 0.01344764 -0.0075545185
0.01312504 0.013136743 -0.0073324027
-0.012194535 0.014138687 -0.0071778502
-0.011512927 0.014625642 -0.0075989743
0.011566736 0.014570164 -0.0076025762
0.01213562 0.014130753 -0.0073224669
-0.011196024 0.015106201 -0.0072449096
-0.01058441 0.015491073 -0.0075113461
-0.0097980862 0.015798667 -0.0076869503
0.0097776642 0.015822817 -0.0077325529
0.010462942 0.01555829 -0.0075400011
0.011190148 0.015090804 -0.0072909337
-0.0092743505 0.016176226 -0.0074134874
-0.0084715337 0.016515184 -0.0075130775
-0.0077312766 0.016850013 -0.0075566946
0.0074930242 0.016859386 -0.0077731051
0.0084710484 0.016556211 -0.0074626193
0.0094454773 0.016176447 -0.0073153176
0.010026284 0.0160232 -0.0070750536
-0.007318317 0.01720118 -0.0072254064
-0.0065139965 0.017398935 -0.0076336698
-0.0056274901 0.017808288 -0.0076927543
0.0055920682 0.017841531 -0.0076587959
0.0065490701 0.017419986 -0.0075243302
0.0072066369 0.017187966 -0.0073639629
-0.0051954342 0.018052055 -0.00756488
-0.0044656205 0.018313346 -0.0075453543
-0.0035602236 0.018604744 -0.0075039114
-0.0024819083 0.018645344 -0.0074718758
-0.0014497782 0.018595723 -0.0076141772
-0.00045970411 0.01865386 -0.0074474555
0.00050277088 0.018643301 -0.0074777375
0.0014181391 0.01866756 -0.0074081691
0.0023873281 0.018635418 -0.0075003435
0.0033941343 0.018608792 -0.0075149746
0.004532495 0.018314805 -0.0074742995
0.0054028463 0.018055718 -0.0073469565
-0.0033030009 -0.019076331 -0.0061904346
-0.0024309696 -0.019065658 -0.0062665027
-0.0013641889 -0.019070981 -0.0062512383
-0.0004659782 -0.019083709 -0.0062147449
0.00048323179 -0.01909088 -0.0061941734
0.0017205754 -0.019068049 -0.0062596439
0.0024249046 -0.019086642 -0.0062063225
0.0034364192 -0.019067181 -0.0062219775
-0.006324464 -0.018118305 -0.0062458608
-0.0054660598 -0.018356681 -0.0064206496
-0.0045330962 -0.018654758 -0.0064987876
-0.0035660374 -0.018888742 -0.0066749495
-0.0024561 -0.018897995 -0.0067473236
-0.0014773031 -0.018906048 -0.0067242333
-0.0005922761 -0.018904163 -0.0067296335
0.0004123713 -0.018861156 -0.0068529728
0.0015037479 -0.018900199 -0.0067409985
0.0025641981 -0.018918693 -0.0066879713
0.0036047739 -0.018904721 -0.0065951669
