# .PCD v0.7 - Point Cloud Data file format
VERSION 0.7
FIELDS x y z
SIZE 4 4 4
TYPE F F F
COUNT 1 1 1
WIDTH 1192
HEIGHT 1
VIEWPOINT 0 0 0 1 0 0 0
POINTS 1192
DATA ascii
-0.00055278663 -0.017536091 -0.0024139413
0.00051992713 -0.017536253 -0.0024203495
0.0012516544 -0.017507534 -0.002147347
-0.0012390002 -0.016479343 -0.0021572267
-0.0004940225 -0.01652641 -0.0024261116
0.00048721459 -0.016517548 -0.0024278578
0.0012750318 -0.01653384 -0.0021350142
-0.001185624 -0.015508214 -0.0021858604
-0.0004818016 -0.015492911 -0.0024259833
0.00045897925 -0.015560697 -0.0024316809
0.0012351532 -0.01548448 -0.0021599052
-0.0012562079 -0.014409036 -0.0021451234
-0.00051758136 -0.01451685 -0.0024208948
0.00052901712 -0.014489082 -0.0024177809
0.0012490413 -0.014531793 -0.0021508441
-0.0012557145 -0.013567841 -0.0021464573
-0.00055206945 -0.013509805 -0.0024107907
0.00049239077 -0.013562647 -0.0024266478
0.0012155791 -0.013501616 -0.0021683532
-0.0012729195 -0.012476895 -0.0021379101
-0.00055477244 -0.012503485 -0.0024136831
0.00046596536 -0.012490608 -0.0024284637
0.0012645856 -0.012465894 -0.00214216
-0.0012303615 -0.011538644 -0.002161446
-0.00052719761 -0.011519392 -0.00241761
0.00042737933 -0.011519118 -0.0024397245
0.0012362623 -0.011533339 -0.0021589678
-0.0012342444 -0.01052656 -0.0021588367
-0.00048162101 -0.010518707 -0.0024290665
0.00054424821 -0.010512519 -0.0024112768
0.0012255484 -0.010421765 -0.00216482
-0.0012857124 -0.0095807333 -0.0021303063
-0.00049965916 -0.0094753103 -0.0024212613
0.00052063132 -0.0095161721 -0.0024220068
0.0012748647 -0.0095263105 -0.0021374752
-0.0012309627 -0.0084454073 -0.0021599662
-0.0005489121 -0.0084867338 -0.0024104377
0.0004723125 -0.0085535254 -0.0024295447
0.00124057 -0.0085225226 -0.002156191
-0.0012169934 -0.0074722529 -0.0021684514
-0.00054322177 -0.0074807513 -0.0024151925
0.00048395657 -0.007571816 -0.0024299351
0.0012065972 -0.0074754199 -0.0021747651
-0.0012794293 -0.0065117436 -0.0021346824
-0.00054049032 -0.0065111443 -0.0024158359
0.00050726335 -0.0064724451 -0.0024239491
0.0012555068 -0.0065833651 -0.0021475779
-0.0012802953 -0.0056185317 -0.0021345066
-0.00049042021 -0.0054328917 -0.0024247358
0.00052011124 -0.00550918 -0.002417437
0.0012267056 -0.0054916465 -0.002165131
-0.0012238859 -0.0045336233 -0.0021644379
-0.00049093069 -0.0045087389 -0.0024251072
0.00053510431 -0.0045372695 -0.002417563
0.0012468884 -0.0045239548 -0.0021533584
-0.0012427111 -0.0035409916 -0.0021542786
-0.00050124276 -0.0034972695 -0.0024242213
0.00048744952 -0.0035239405 -0.002426153
0.0012898073 -0.0035754044 -0.0021265217
-0.0012751933 -0.0024676388 -0.0021368188
-0.00044614641 -0.0024684158 -0.0024340812
0.0005480143 -0.0024605538 -0.0024158733
0.0012478026 -0.0024780987 -0.0021531961
-0.0012133118 -0.0014880989 -0.0021716298
-0.00047448531 -0.0014775593 -0.0024295053
0.000500692 -0.001521464 -0.0024238224
0.0012607059 -0.0015787396 -0.0021432829
-0.0012730329 -0.00060042302 -0.0021370058
-0.00045996116 -0.00051266211 -0.0024313349
0.00056968065 -0.00048152072 -0.0024080675
0.0012141912 -0.00049161818 -0.0021713136
-0.0012788143 0.00056503067 -0.0021352323
-0.00047785349 0.00050935743 -0.0024267989
0.00052893994 0.00045859808 -0.002419513
0.0012462671 0.00050878513 -0.0021532178
-0.0012568646 0.0015173373 -0.0021464587
-0.00057778822 0.0015752993 -0.0024061517
0.00049430545 0.0014669811 -0.0024245423
0.0012694262 0.0015440678 -0.0021387311
-0.0012245943 0.0024009577 -0.0021638926
-0.00061395613 0.0025249519 -0.0023996285
0.00048184188 0.0024702125 -0.002427707
0.0012641352 0.0024700472 -0.0021421521
-0.0012334819 0.0035344781 -0.0021602539
-0.00051230524 0.0035031056 -0.0024227151
0.00045548714 0.003517268 -0.0024317079
0.0012150115 0.0034393575 -0.0021689283
-0.0012936553 0.0044742976 -0.0021267144
-0.00053457031 0.0044561471 -0.0024193933
0.00048843765 0.0045264461 -0.0024256057
0.001313097 0.0044712746 -0.0021155197
-0.0012616609 0.0054619811 -0.0021432841
-0.0005323856 0.0055389348 -0.0024194515
0.00054726942 0.0055591329 -0.0024155856
0.0012390862 0.0055675344 -0.002155303
-0.0012070941 0.0065108221 -0.0021739218
-0.00057774223 0.0065196068 -0.0024075885
0.00046966947 0.0065023811 -0.002426361
0.0012286832 0.0064898175 -0.0021621955
-0.0012435734 0.0075066239 -0.0021537566
-0.00048949104 0.0075102593 -0.0024264106
0.00051433756 0.0074683679 -0.0024207963
0.0012673824 0.0075470777 -0.0021409898
-0.0012192174 0.0084338021 -0.0021664333
-0.00053607288 0.0084778639 -0.0024131367
0.00047313963 0.0084984815 -0.0024306334
0.0012687885 0.008530464 -0.0021385672
-0.001276619 0.0094737876 -0.0021350323
-0.00050510484 0.0095060607 -0.0024218417
0.00047021912 0.0094259027 -0.0024316499
0.0012529438 0.0095414883 -0.0021500986
-0.001252954 0.010480381 -0.0021475037
-0.00046516448 0.010574694 -0.0024313303
0.00054842036 0.010501024 -0.002414302
0.001265122 0.010537298 -0.002140647
-0.0012309836 0.011510867 -0.0021620537
-0.0004812034 0.01151259 -0.0024277901
0.00055052852 0.011557896 -0.0024126251
0.0012470508 0.011495404 -0.0021503258
-0.0012715348 0.012460784 -0.0021378514
-0.00046562825 0.012478899 -0.0024319896
0.00052100519 0.012478527 -0.0024166147
0.001255571 0.012527237 -0.002146143
-0.0012320975 0.01346941 -0.0021601254
-0.00050952996 0.013507449 -0.0024211234
0.00047188727 0.013489142 -0.0024291002
0.001229624 0.013557356 -0.002162423
-0.0012350577 0.014601493 -0.002158775
-0.00046587741 0.014582121 -0.0024342025
0.00050301093 0.014525111 -0.0024226911
0.0012447649 0.01452952 -0.0021540611
-0.0013072516 0.015600105 -0.0021195381
-0.00041939272 0.015507614 -0.0024383157
0.00046751488 0.015451049 -0.0024287023
0.0012570862 0.015550415 -0.0021453581
-0.0012474802 0.016503854 -0.0021530779
-0.00051079539 0.016487228 -0.0024213914
0.00052394706 0.016436854 -0.0024152512
0.0012378179 0.016458983 -0.0021575203
-0.001229221 0.017477084 -0.0021615401
-0.00047987135 0.017545737 -0.0024295172
0.00047199213 0.017503135 -0.0024309307
0.0012235828 0.017537052 -0.0021631469
-0.0012063404 0.018495161 -0.002174315
-0.00055721565 0.018518789 -0.0024094284
0.00053176872 0.018498076 -0.002417929
0.0012350437 0.018526809 -0.0021598919
-0.0012145583 0.019419309 -0.0021707737
-0.00051970116 0.019491706 -0.0024225651
0.00051635999 0.019482441 -0.0024177025
0.0012655656 0.019487014 -0.0021411919
-0.001231585 0.020528007 -0.0021604691
-0.00057144754 0.020561121 -0.0024082495
0.0005304357 0.020526141 -0.0024182396
0.001262068 0.020602021 -0.0021433812
-0.0012593017 0.021506362 -0.002146865
-0.00052416167 0.021517046 -0.0024165243
0.00047072736 0.021497916 -0.0024289361
0.0012543997 0.021455588 -0.002147059
-0.0012371846 0.022424763 -0.0021566977
-0.00046361424 0.022544757 -0.0024297873
0.00051095465 0.022493569 -0.0024227183
0.0012794425 0.022425752 -0.0021337033
-0.0012570313 0.023457147 -0.0021470753
-0.00047206247 0.023454294 -0.0024279337
0.00050956785 0.023497252 -0.002425414
0.0012501802 0.023479845 -0.0021498522
-0.0012867355 0.02456988 -0.0021283859
-0.00056347676 0.024531653 -0.0024081962
0.00050960574 0.024488389 -0.0024229451
0.0012533758 0.024463506 -0.0021478622
-0.0012499498 0.02543333 -0.0021500841
-0.00048746564 0.025457006 -0.0024269577
0.0005251129 0.025446346 -0.0024185826
0.0012296154 0.025531907 -0.0021629459
-0.001224829 0.02646004 -0.0021641061
-0.00051412341 0.02654653 -0.0024200706
0.00051127624 0.026473312 -0.0024209099
0.0012390364 0.026430944 -0.0021565964
-0.00124425 0.027595967 -0.0021530597
-0.00050338579 0.027513701 -0.0024241223
0.00053834019 0.027543651 -0.0024192601
0.0012345411 0.02749176 -0.0021585082
-0.0012431192 0.028583148 -0.0021534893
-0.0004866925 0.028532814 -0.0024245833
0.00048360389 0.028525654 -0.0024263316
0.0012446191 0.028455762 -0.0021535016
-0.0012272348 0.029629279 -0.00216426
-0.00046176373 0.029469702 -0.0024321293
0.0004964291 0.029542476 -0.0024269063
0.001245499 0.029467192 -0.0021511668
-0.0012728268 0.030602014 -0.0021360707
-0.00055512943 0.030521633 -0.0024132712
0.0004508108 0.030480728 -0.0024329245
0.0012139276 0.030576898 -0.0021723635
-0.0012181895 0.031595476 -0.0021673995
-0.00057149521 0.031519614 -0.0024053296
0.00046665806 0.031490117 -0.0024342847
0.0012504432 0.031468727 -0.0021494208
-0.0012782841 0.032497667 -0.0021325923
-0.00052430015 0.032481421 -0.0024186303
0.00045784938 0.032525543 -0.00243445
0.0012898444 0.03248921 -0.0021282453
-0.0012442794 0.033432357 -0.0021542015
-0.00050274062 0.033490397 -0.0024221237
0.00051821867 0.033578943 -0.0024203344
0.0012539917 0.033537425 -0.0021468271
-0.0012479273 0.034519069 -0.0021514618
-0.00050304603 0.034461148 -0.0024232636
0.00053892669 0.034495737 -0.0024150044
0.0012661555 0.034468237 -0.0021422841
-0.0012624444 0.03549163 -0.0021424512
-0.00049861992 0.035497203 -0.0024207882
0.00048032103 0.0355157 -0.0024311608
0.0012667258 0.03550167 -0.0021422696
-0.0012808159 0.036473844 -0.0021333867
-0.00050110347 0.036488432 -0.0024230231
0.00052293774 0.036454514 -0.0024196731
0.0012616775 0.036465205 -0.002144767
-0.0012506318 0.037475031 -0.0021503309
-0.00052484579 0.037569139 -0.0024189171
0.00049288216 0.037536241 -0.002426188
0.0012876635 0.03751038 -0.0021289981
-0.0012190763 0.038475089 -0.0021685241
-0.00050722866 0.038478289 -0.0024208683
0.00044194699 0.038520869 -0.0024378111
0.0012649643 0.038520105 -0.0021400084
-0.0012258376 0.039491978 -0.0021634754
-0.00057828618 0.039513223 -0.0024070838
0.00051329407 0.039529599 -0.0024217006
0.0012737911 0.039425232 -0.0021373206
-0.0012163925 0.040492453 -0.0021697467
-0.00042968895 0.040532496 -0.0024372973
0.00053244253 0.040493451 -0.0024172827
0.001249801 0.040457964 -0.0021506674
-0.0012391249 0.041495528 -0.0021564013
-0.00052455842 0.041521877 -0.0024205367
0.00053730945 0.041483741 -0.0024180354
0.0012355032 0.041558843 -0.0021586702
-0.001291679 0.042418003 -0.0021258004
-0.00050693261 0.042467151 -0.0024219807
0.00054338976 0.042475984 -0.0024133129
0.0012237674 0.042551916 -0.0021648956
-0.0011812547 0.043549467 -0.0021893601
-0.0005774626 0.043502048 -0.0024056309
0.00047514291 0.043507148 -0.0024289957
0.001225746 0.043390825 -0.0021640956
-0.0012491976 0.044490453 -0.0021518986
-0.00050917914 0.044516779 -0.0024227931
0.00049960078 0.044508915 -0.0024239975
0.001262244 0.044492312 -0.0021437756
-0.0012387064 0.045467023 -0.0021564199
-0.00057535199 0.045484252 -0.002410389
0.00053036655 0.045462005 -0.0024164496
0.0012177845 0.045583703 -0.002167325
-0.0012368157 0.04653639 -0.0021576264
-0.00051244959 0.046470907 -0.0024209362
0.00055198011 0.046461552 -0.0024139157
0.0012668553 0.046495207 -0.0021394813
-0.001270867 0.047538366 -0.0021397292
-0.00048235824 0.047595713 -0.0024265624
0.00051630806 0.047522221 -0.0024185048
0.0012153621 0.047474917 -0.0021697378
-0.0012131119 0.048430402 -0.00217099
-0.00042009039 0.048488986 -0.0024385913
0.00051575841 0.048466321 -0.0024217865
0.0012525287 0.048423614 -0.0021489256
-0.0011864667 0.04953501 -0.0021689008
-0.00049716828 0.049643937 -0.0023732602
0.00049702398 0.049656183 -0.0023517895
0.0012190352 0.049559094 -0.0021502059
-0.0012120649 0.050000004 -0.0021163383
-0.00053465267 0.050000008 -0.0022220491
0.00029730619 0.050000001 -0.0021060742
-0.0021376766 -0.049447458 -0.0012526739
-0.0015934701 -0.049780421 -0.0015002732
-0.00044678673 -0.049999975 -0.0014933017
0.00048576234 -0.049999967 -0.0014440819
0.0015881637 -0.049776286 -0.0015524424
0.0021605638 -0.049500175 -0.0012242345
-0.0021475081 -0.048503619 -0.0012575433
-0.0017642513 -0.04851272 -0.0017429712
0.001756403 -0.048435144 -0.0017542519
0.002139875 -0.048586506 -0.0012674453
-0.0021590206 -0.047480721 -0.0012353061
-0.0017414073 -0.047495402 -0.0017707392
0.0017171138 -0.047460217 -0.0017921085
0.0021566539 -0.047556732 -0.0012405204
-0.0021620586 -0.046493076 -0.0012303202
-0.0017777082 -0.046387389 -0.0017319362
0.0017792656 -0.046486892 -0.0017319717
0.0021489933 -0.046467405 -0.0012529722
-0.0021507035 -0.045528658 -0.0012496792
-0.0017841219 -0.045469124 -0.0017275363
0.0017811487 -0.045509528 -0.001732707
0.0021352796 -0.045472499 -0.0012788988
-0.0021421406 -0.044578861 -0.0012637465
-0.0017577135 -0.044661961 -0.0017521016
0.0017248291 -0.044496499 -0.0017858583
0.0021609424 -0.044537287 -0.0012306739
-0.0021601089 -0.043480027 -0.0012338784
-0.0017606125 -0.04350929 -0.001749901
0.0017306828 -0.043555874 -0.0017798091
0.0021698745 -0.043474991 -0.0012146692
-0.0021686221 -0.042505577 -0.0012168237
-0.0017994433 -0.042574625 -0.0017093451
0.0017545599 -0.042496447 -0.0017559759
0.0021531649 -0.042464722 -0.0012467011
-0.0021557857 -0.041431326 -0.0012404396
-0.0017574568 -0.041485306 -0.0017506449
0.0017701357 -0.041490033 -0.0017413741
0.0021503281 -0.041470673 -0.0012513162
-0.0021433095 -0.040509906 -0.0012631944
-0.001744443 -0.040473815 -0.0017657165
0.0017580702 -0.04051644 -0.0017537003
0.0021453761 -0.040629521 -0.0012593433
-0.0021402468 -0.03940428 -0.0012689743
-0.0018015122 -0.039396945 -0.0017073667
0.0017427688 -0.039541882 -0.0017667991
0.002162809 -0.039435469 -0.0012255278
-0.0021597 -0.038483661 -0.0012338518
-0.0017423269 -0.038480677 -0.0017692398
0.0017521244 -0.03847751 -0.0017579366
0.0021339585 -0.038589031 -0.0012815997
-0.0021527661 -0.037571706 -0.0012452832
-0.0017498303 -0.037505805 -0.0017616514
0.0017524812 -0.037505325 -0.0017620928
0.0021717034 -0.03749752 -0.0012124523
-0.0021552343 -0.036495164 -0.0012428338
-0.0017372947 -0.036493059 -0.0017711695
0.0017571558 -0.036480296 -0.0017495808
0.0021406063 -0.036427639 -0.0012667683
-0.0021555794 -0.035497662 -0.0012409649
-0.0017466658 -0.035503343 -0.0017602649
0.0017803245 -0.035522532 -0.0017309448
0.0021494483 -0.035418015 -0.0012496213
-0.0021496653 -0.03448797 -0.0012492706
-0.0017690858 -0.034474134 -0.001741927
0.0017555541 -0.034502592 -0.0017545144
0.0021531784 -0.034545533 -0.0012469304
-0.0021624994 -0.033429414 -0.0012288347
-0.0017865894 -0.033512507 -0.0017232973
0.0017540518 -0.033538278 -0.0017560256
0.0021697183 -0.033519145 -0.0012173072
-0.0021159563 -0.032518312 -0.0013094282
-0.0017435154 -0.032463938 -0.0017702021
0.0017274135 -0.032576885 -0.0017813937
0.0021489686 -0.032566685 -0.0012486464
-0.0021654691 -0.031469304 -0.0012233993
-0.0017715159 -0.031528093 -0.0017414343
0.001785184 -0.031540733 -0.0017220954
0.0021446024 -0.031530663 -0.0012604404
-0.0021469423 -0.030529726 -0.0012552091
-0.0016896813 -0.030472293 -0.0018211217
0.0017807049 -0.030529043 -0.001733538
0.0021419486 -0.030497374 -0.0012647269
-0.0021594404 -0.029481273 -0.0012321073
-0.0017887603 -0.029569115 -0.0017264138
0.0017670031 -0.029442281 -0.0017446257
0.0021297564 -0.029515786 -0.0012894488
-0.0021498385 -0.028485531 -0.0012514493
-0.0017875612 -0.028457938 -0.0017253968
0.0018013966 -0.028488658 -0.0017091512
0.002149319 -0.028423674 -0.0012561391
-0.002162406 -0.02762069 -0.0012294134
-0.0017690428 -0.027479438 -0.0017421801
0.0017494286 -0.027476469 -0.0017593376
0.00216664 -0.027426753 -0.0012222638
-0.0021427837 -0.026452929 -0.0012625635
-0.001738865 -0.026488302 -0.001774592
0.0017575496 -0.026542515 -0.0017522797
0.0021533312 -0.0266305 -0.0012449709
-0.0021485589 -0.025564134 -0.0012512427
-0.0017636425 -0.025508236 -0.0017478964
0.001734202 -0.025555519 -0.0017701512
0.002167695 -0.025467502 -0.0012186558
-0.0021480049 -0.02450962 -0.0012518943
-0.0017433251 -0.024471652 -0.0017679714
0.0017796026 -0.024424313 -0.0017319566
0.0021431483 -0.024470061 -0.0012604538
-0.0021453011 -0.023544794 -0.0012596813
-0.0017804509 -0.023517195 -0.0017334392
0.0017783025 -0.023508485 -0.0017348133
0.0021452392 -0.023533175 -0.001260494
-0.0021633077 -0.022487488 -0.001225859
-0.0017940972 -0.022399526 -0.0017163402
0.0017282288 -0.02250337 -0.0017838373
0.0021786473 -0.022514956 -0.0011983861
-0.0021612984 -0.021521041 -0.0012298368
-0.0017258828 -0.021519696 -0.0017862128
0.0017934548 -0.021428742 -0.0017175277
0.002132237 -0.02147547 -0.0012814348
-0.0021369506 -0.020438857 -0.0012744073
-0.0017376733 -0.020474529 -0.0017733743
0.0017586962 -0.020533456 -0.0017512569
0.0021526653 -0.020462569 -0.0012454634
-0.0021503165 -0.019468488 -0.0012504901
-0.0017497347 -0.019476257 -0.0017623048
0.0017370062 -0.019468006 -0.0017750951
0.002146092 -0.019526796 -0.0012593711
-0.0021377115 -0.018448036 -0.0012703642
-0.0017440766 -0.01852088 -0.0017680125
0.001748605 -0.018468354 -0.0017626366
0.0021613704 -0.018497974 -0.0012307944
-0.0021551773 -0.017490251 -0.001242455
-0.0017266449 -0.017571626 -0.0017816878
0.0017533918 -0.017514613 -0.0017591063
0.0021433737 -0.017391363 -0.001263114
-0.0021376156 -0.016510347 -0.0012696827
-0.0017202216 -0.016481763 -0.0017876568
0.001827518 -0.016564535 -0.0016865572
0.0021726931 -0.016525822 -0.00121267
-0.002142349 -0.015405359 -0.0012649716
-0.0017115236 -0.015521532 -0.0017964304
0.0017304699 -0.015508512 -0.0017773666
0.0021529407 -0.015485473 -0.0012469083
-0.0021409567 -0.01441318 -0.0012663654
-0.0017686825 -0.014489392 -0.0017415917
0.001746416 -0.014470022 -0.001766087
0.002139695 -0.014376766 -0.0012692834
-0.0021582989 -0.013539415 -0.0012365857
-0.0017463991 -0.013501283 -0.0017670783
0.0017506076 -0.013497396 -0.0017579874
0.0021586481 -0.013504333 -0.0012322123
-0.0021527428 -0.012459495 -0.0012456941
-0.0017736938 -0.012498131 -0.0017348826
0.0017534852 -0.012403773 -0.0017630694
0.0021648225 -0.012523113 -0.0012240851
-0.0021477554 -0.011430502 -0.0012558241
-0.001739459 -0.011503468 -0.0017713592
0.0017584609 -0.011491186 -0.0017518391
0.0021550604 -0.011478966 -0.0012414064
-0.0021318744 -0.010456058 -0.0012826427
-0.0017278399 -0.010492395 -0.0017816054
0.0017778556 -0.010499882 -0.0017318563
0.0021561021 -0.010474801 -0.0012399309
-0.0021681793 -0.0094595514 -0.0012198605
-0.0017724065 -0.0094349235 -0.0017422301
0.0017587993 -0.0095548276 -0.0017491465
0.0021518571 -0.0094885966 -0.0012502491
-0.0021330835 -0.0085008722 -0.0012774029
-0.0017683655 -0.0084799333 -0.001741472
0.0017406606 -0.0085138772 -0.0017682007
0.0021800452 -0.0085172867 -0.0011962104
-0.0021490091 -0.0075716078 -0.0012535645
-0.0017806398 -0.0075095524 -0.0017270885
0.0017464862 -0.0075033321 -0.0017617067
0.0021473139 -0.0074666827 -0.0012536212
-0.0021389532 -0.0065385536 -0.0012678776
-0.0017320727 -0.0065424698 -0.0017788775
0.0017517897 -0.0064965663 -0.0017547819
0.0021542327 -0.0065514226 -0.0012439277
-0.002157781 -0.0055185738 -0.0012374023
-0.0017503686 -0.0055006007 -0.0017594197
0.0017145522 -0.0055408934 -0.0017932985
0.0021511586 -0.0054664309 -0.0012483359
-0.0021441993 -0.0044165212 -0.0012632718
-0.001725385 -0.0044806935 -0.0017868236
0.0017308418 -0.0045399116 -0.001781831
0.0021606013 -0.0044492423 -0.0012345017
-0.0021526662 -0.0035334551 -0.0012458422
-0.0017812827 -0.0035513961 -0.0017316809
0.0017484028 -0.0034873388 -0.001763151
0.0021585429 -0.0036002477 -0.0012380822
-0.0021417097 -0.0025031588 -0.0012650392
-0.0017584956 -0.0024522725 -0.0017537361
0.0017339836 -0.0024688561 -0.0017756467
0.0021402035 -0.0025005681 -0.001266359
-0.0021656079 -0.0015058505 -0.0012250411
-0.001756806 -0.0015294659 -0.0017531641
0.0017397878 -0.0014885971 -0.0017722816
0.0021340193 -0.0015224305 -0.0012790697
-0.002145445 -0.00054524699 -0.0012588461
-0.0017479878 -0.00052282104 -0.0017619318
0.0018042173 -0.0005122266 -0.0017031316
0.0021450086 -0.00049081654 -0.0012609792
-0.0021661397 0.00050591369 -0.0012193221
-0.001747392 0.00050256867 -0.0017605871
0.001755619 0.00044654153 -0.001756591
0.0021392412 0.00057069113 -0.0012698057
-0.0021522755 0.0015041948 -0.0012456181
-0.0017602333 0.0014637848 -0.001750597
0.0017434515 0.0015039844 -0.0017677451
0.0021585382 0.0014904402 -0.001234764
-0.0021658151 0.0024781162 -0.0012228329
-0.0017735626 0.0025584239 -0.0017351747
0.001753876 0.0025195146 -0.0017548186
0.0021421385 0.0024516652 -0.0012641094
-0.0021527382 0.0035067 -0.0012458876
-0.0017472808 0.0034643454 -0.0017639089
0.0017509199 0.0035208864 -0.0017610678
0.0021650123 0.0034055433 -0.0012224612
-0.0021705681 0.004466339 -0.0012157165
-0.0016972478 0.0044982866 -0.0018123873
0.0017792892 0.0045400918 -0.0017311565
0.0021551645 0.0045097084 -0.0012403317
-0.0021474289 0.0055335639 -0.0012548446
-0.0017710543 0.0054823323 -0.0017386429
0.0018245813 0.0055602863 -0.0016872534
0.0021617438 0.0055419388 -0.0012285504
-0.0021583259 0.0064300438 -0.0012340432
-0.0017897645 0.0065754727 -0.0017249251
0.0017270144 0.0064986902 -0.0017825624
0.0021370708 0.0065374468 -0.0012741283
-0.0021324439 0.0075437417 -0.0012841105
-0.0017478914 0.0074627399 -0.0017635288
0.0017620544 0.0075313486 -0.0017468216
0.0021455488 0.0075754779 -0.0012584031
-0.0021444154 0.0084915217 -0.0012585506
-0.0017369671 0.0084822197 -0.0017734433
0.0017618152 0.0085674468 -0.001747663
0.0021502955 0.0083715655 -0.0012514968
-0.0021412326 0.0095290858 -0.0012664525
-0.0017642735 0.0094983978 -0.0017500741
0.0017424562 0.0095257042 -0.0017709134
0.0021464194 0.009470203 -0.0012583092
-0.0021437365 0.010536324 -0.0012623325
-0.0017643003 0.010468587 -0.0017460405
0.0017624419 0.010420825 -0.0017499675
0.0021495807 0.010475333 -0.0012501118
-0.0021485696 0.011496765 -0.0012539901
-0.0017378476 0.011469773 -0.001776816
0.0017203909 0.011521961 -0.0017954042
0.0021583962 0.011573308 -0.0012367751
-0.0021499356 0.012437729 -0.0012483066
-0.0017885241 0.012457227 -0.0017197168
0.0017767949 0.012470508 -0.0017354115
0.0021462205 0.012456298 -0.0012554432
-0.0021569973 0.013543082 -0.0012384179
-0.0017401672 0.013561146 -0.0017692288
0.0017353974 0.013458709 -0.0017746618
0.0021744003 0.013545791 -0.0012058326
-0.0021434473 0.014492039 -0.0012624095
-0.0017560559 0.014465969 -0.0017532058
0.0017630906 0.01447353 -0.001748022
0.0021378489 0.014567424 -0.0012716786
-0.0021171453 0.01556688 -0.0013055638
-0.0017186638 0.015528256 -0.0017889042
0.0017090014 0.015464224 -0.0018018649
0.0021416752 0.015510932 -0.0012620913
-0.0021495237 0.016528785 -0.0012533201
-0.0017581735 0.016528411 -0.0017552285
0.0017303118 0.016547563 -0.0017791332
0.0021728878 0.016517779 -0.0012107004
-0.0021701306 0.017531332 -0.0012150405
-0.0017270377 0.017579224 -0.0017814665
0.0017561858 0.017479181 -0.0017551619
0.0021627934 0.017526001 -0.0012283622
-0.0021399627 0.01852777 -0.0012668632
-0.0017930409 0.018494835 -0.0017165414
0.0017981203 0.018478459 -0.0017108051
0.0021560118 0.018524896 -0.0012407833
-0.0021735083 0.019482341 -0.0012060917
-0.0017633669 0.019553863 -0.0017482491
0.0017688049 0.019457793 -0.0017398963
0.0021404258 0.019488575 -0.0012682237
-0.0021556206 0.020419037 -0.0012415298
-0.0017549731 0.020489464 -0.0017555641
0.0017827071 0.020551823 -0.0017270421
0.0021594476 0.020431789 -0.0012348056
-0.0021313224 0.021430884 -0.0012826103
-0.0017345245 0.021486666 -0.0017746802
0.0017577166 0.021513347 -0.0017531849
0.0021729833 0.021393953 -0.0012096073
-0.0021728596 0.022529209 -0.0012130826
-0.0017216463 0.022399371 -0.0017925105
0.0017836783 0.022504833 -0.0017258541
0.0021588556 0.022508856 -0.001236358
-0.0021333555 0.023403607 -0.0012789431
-0.0017572027 0.023512967 -0.0017474628
0.0017259674 0.023456121 -0.0017853136
0.0021483088 0.02348838 -0.0012516425
-0.0021392824 0.024488006 -0.0012698254
-0.0018216736 0.024549486 -0.0016866457
0.0017254209 0.024501469 -0.0017831612
0.0021615229 0.024482124 -0.0012290659
-0.0021577887 0.025490087 -0.0012372097
-0.0017695389 0.025517896 -0.0017418787
0.0017830225 0.025494808 -0.0017295788
0.0021540748 0.02555673 -0.0012438027
-0.0021402086 0.026488023 -0.0012679069
-0.0017703185 0.026492672 -0.0017391187
0.0017977908 0.026443912 -0.0017122426
0.002152611 0.02653206 -0.0012456415
-0.0021587037 0.027535342 -0.001236939
-0.0017217696 0.027525311 -0.0017914037
0.0017674448 0.027572112 -0.0017465138
0.002136582 0.027510431 -0.0012726927
-0.0021467428 0.028485019 -0.0012536839
-0.0017734199 0.028504437 -0.0017373625
0.0017285049 0.02841894 -0.0017800411
0.0021281771 0.02848269 -0.0012882244
-0.002160514 0.02955124 -0.0012328887
-0.001753131 0.02953919 -0.0017623368
0.0017473667 0.029445831 -0.0017610813
0.0021577324 0.029409859 -0.0012378636
-0.002143001 0.030555759 -0.0012652081
-0.0017518615 0.030523613 -0.0017562225
0.0017512735 0.030477853 -0.0017547671
0.0021570658 0.030518081 -0.0012391977
-0.0021728484 0.031476606 -0.0012098539
-0.0017657335 0.031560991 -0.0017474765
0.0017689898 0.03147487 -0.0017422581
0.0021592337 0.031474434 -0.0012331763
-0.0021822159 0.032652639 -0.0011940737
-0.0017538035 0.032489151 -0.0017559603
0.0017746774 0.032474406 -0.0017339074
0.0021508939 0.032452703 -0.0012508585
-0.0021601112 0.033503134 -0.0012305646
-0.0017652554 0.033530932 -0.0017445878
0.0017523377 0.033544946 -0.0017558608
0.0021656377 0.033481136 -0.0012210979
-0.002165742 0.034498502 -0.0012238029
-0.0017177889 0.034504846 -0.0017909536
0.0017507697 0.034511019 -0.0017608657
0.0021139218 0.03451895 -0.0013123524
-0.0021429246 0.035469756 -0.0012645855
-0.0017575824 0.035459302 -0.0017546467
0.001766922 0.035455342 -0.0017433804
0.0021225957 0.035537384 -0.001295949
-0.0021259489 0.036574006 -0.0012900823
-0.0017561283 0.036587685 -0.0017547121
0.0017526847 0.036510978 -0.0017598957
0.0021527605 0.03656264 -0.0012457211
-0.0021590439 0.037368238 -0.0012341437
-0.0017835301 0.037522495 -0.0017291034
0.0017366207 0.037476178 -0.0017766312
0.0021325585 0.037476819 -0.001279655
-0.002161775 0.038487133 -0.0012286028
-0.0017761855 0.038429402 -0.0017364983
0.0018169543 0.038495768 -0.0016920851
0.0021532574 0.038446277 -0.0012435681
-0.0021592672 0.039557211 -0.001235629
-0.0017298365 0.039479882 -0.0017800285
0.0017679472 0.039543796 -0.0017460083
0.0021289962 0.039510358 -0.0012858331
-0.0021783893 0.040439706 -0.001202322
-0.001754655 0.040568478 -0.0017604266
0.0017904382 0.040515654 -0.0017211337
0.0021734692 0.040591352 -0.0012075285
-0.0021657941 0.041581251 -0.0012230929
-0.0017375986 0.041477565 -0.0017696917
0.0017379072 0.041495472 -0.0017725881
0.0021625576 0.041510783 -0.0012287133
-0.002176041 0.042495504 -0.0012051051
-0.0018137326 0.042599887 -0.0016934549
0.0017514081 0.042443682 -0.0017615239
0.0021511873 0.04252645 -0.0012488142
-0.0021519705 0.043565664 -0.001246199
-0.0017268303 0.043540418 -0.0017831783
0.0016954627 0.043522548 -0.0018156527
0.0021635983 0.043428652 -0.0012290062
-0.002164481 0.044544 -0.001226199
-0.0017583687 0.044533055 -0.0017516589
0.0017829669 0.04446055 -0.0017313965
0.0021392223 0.044485014 -0.0012699369
-0.0021308661 0.045503549 -0.0012851715
-0.0017460089 0.045560289 -0.0017647055
0.0017296145 0.045470286 -0.001779547
0.0021630041 0.045514502 -0.001228573
-0.0021447768 0.046491828 -0.0012612673
-0.0017645763 0.046586327 -0.0017455801
0.0017479886 0.046522979 -0.0017658082
0.0021764454 0.046422254 -0.0012043192
-0.0021409777 0.047491059 -0.0012644831
-0.0017664373 0.047433153 -0.0017459083
0.0017254384 0.047544837 -0.0017831372
0.0021616539 0.047467433 -0.0012317201
-0.002137268 0.048527475 -0.0012716786
-0.0017639168 0.048452292 -0.0017446929
0.0017285831 0.048509214 -0.0017831395
0.0021587042 0.048433986 -0.0012335619
-0.0021424366 0.049434301 -0.0012613425
-0.0016318626 0.049688384 -0.0016442006
-0.00056202966 0.049999982 -0.0014549354
0.00048293101 0.049999975 -0.0015026687
0.001651049 0.049685486 -0.0016006219
0.0021443274 0.049554352 -0.0012587754
-0.00152938 0.050000008 -0.0014454122
-0.00062412367 0.050000008 -0.0015248514
0.00052649283 0.050000008 -0.0014924065
0.0014261251 0.050000008 -0.0015076604
0.0021648789 0.050000004 -0.0011512378
-0.0023803101 -0.049634125 -0.00047915187
-0.0014710869 -0.049999971 -0.00048505346
-0.00043923329 -0.049999975 -0.00047165033
0.00055073464 -0.049999975 -0.00052077614
0.0015635913 -0.049999971 -0.0005108036
0.0023655712 -0.049694218 -0.00046679514
-0.0024203784 -0.048484031 -0.00050828024
0.0023998206 -0.048571255 -0.00061469863
-0.0024108218 -0.047506694 -0.00056129973
0.0024285954 -0.04746886 -0.00046399859
-0.002410183 -0.046438128 -0.00056432374
0.0024344386 -0.04651285 -0.00044730154
-0.0024313831 -0.045547858 -0.0004778622
0.0024213083 -0.045490675 -0.00050475931
-0.0024133706 -0.044463858 -0.0005410841
0.0024251905 -0.044573002 -0.00049891794
-0.0024197821 -0.043456141 -0.00051497534
0.0024211996 -0.043487489 -0.00051017856
-0.0024263107 -0.042507466 -0.0004882465
0.0024319014 -0.042483825 -0.00046494874
-0.0024049375 -0.041523021 -0.00056331902
0.0024083236 -0.04144989 -0.0005828297
-0.0024035743 -0.040530089 -0.0005913924
0.0024171853 -0.040534116 -0.00052942039
-0.0024270304 -0.039445788 -0.00050073769
0.0024267398 -0.039423712 -0.00048757062
-0.0024340055 -0.038468309 -0.00044869978
0.0024256681 -0.038541239 -0.00049538334
-0.002429768 -0.037489753 -0.00047681091
0.0024275305 -0.037508395 -0.00047455649
-0.0024321082 -0.036461126 -0.00046737422
0.0024262045 -0.036481846 -0.00048324565
-0.0024316409 -0.035539631 -0.00048215361
0.0024268173 -0.035449978 -0.00049002207
-0.0024160359 -0.034456372 -0.00053592067
0.0024213267 -0.034506552 -0.00049541629
-0.0024315875 -0.033499777 -0.00046144187
0.0024204862 -0.033457536 -0.00051806233
-0.0024219714 -0.032434888 -0.0004965504
0.0024196908 -0.03245461 -0.00052931946
-0.0024269363 -0.031531513 -0.00048016544
0.0024240431 -0.031500909 -0.00048550809
-0.0024208792 -0.030508412 -0.00051084702
0.0024084949 -0.030504288 -0.00056953961
-0.0024232839 -0.029534452 -0.00050881749
0.0024146826 -0.029496631 -0.00053416518
-0.0024214089 -0.028483281 -0.00050283811
0.0024240615 -0.028578697 -0.00048724355
-0.0024230396 -0.02746374 -0.00050390081
0.0024300902 -0.027517669 -0.00047269691
-0.0024202496 -0.026423339 -0.00051238108
0.0024279957 -0.026498884 -0.00046858576
-0.002421686 -0.025478551 -0.00052223669
0.0024212736 -0.025530802 -0.00049969158
-0.0024341561 -0.024510607 -0.00045917754
0.002423249 -0.024475381 -0.00050380861
-0.002401415 -0.023482185 -0.00060115865
0.0024126701 -0.023581721 -0.00054167956
-0.0024110219 -0.022495786 -0.0005490302
0.0024126587 -0.022457538 -0.0005588613
-0.0024270404 -0.021505108 -0.00048879295
0.002416366 -0.021538483 -0.00054198049
-0.0024298832 -0.020486612 -0.00046764058
0.0024096302 -0.020539969 -0.00056657236
-0.002427951 -0.019456251 -0.00047433097
0.0024251433 -0.019484898 -0.00048589386
-0.0024284876 -0.018432476 -0.00047530138
0.0024049338 -0.01849312 -0.00057790347
-0.0024324914 -0.017442467 -0.00044494268
0.0024192012 -0.017443368 -0.00051684887
-0.0024111706 -0.016473526 -0.0005536715
0.002423316 -0.016540769 -0.00051666854
-0.0024228117 -0.015483385 -0.00051511783
0.0024175055 -0.015504574 -0.00053023366
-0.0024162182 -0.014464322 -0.00053837535
0.0024246965 -0.014501903 -0.00049203151
-0.0024271577 -0.01352057 -0.00048551863
0.0024155988 -0.013541126 -0.00053724879
-0.0024169243 -0.01251447 -0.00053768564
0.0024213931 -0.012552358 -0.00052007328
-0.0024214708 -0.011522464 -0.00051378465
0.0024206475 -0.011469081 -0.00050985051
-0.0024259789 -0.010524703 -0.00048949907
0.0024229556 -0.010496711 -0.00051069941
-0.0024207237 -0.0094813965 -0.00051896414
0.0024296741 -0.0095547866 -0.00048477357
-0.002413095 -0.0085505517 -0.00055437261
0.0024262676 -0.0084475754 -0.00047172746
-0.0024316555 -0.007462183 -0.00046032094
0.0024364048 -0.0075015323 -0.0004324466
-0.0024097136 -0.006430408 -0.00055713061
0.0024151085 -0.0065404624 -0.00052526634
-0.0024216643 -0.0054627289 -0.00049923867
0.0024235344 -0.005501336 -0.00050099584
-0.0024393599 -0.0044942759 -0.00042423944
0.0024405683 -0.0045259562 -0.0004222939
-0.0024306804 -0.0034829814 -0.00045792846
0.0024308974 -0.0034908017 -0.00046663245
-0.0024193809 -0.002489411 -0.00051250594
0.002424354 -0.0024526634 -0.00049519795
-0.0024152384 -0.0015217799 -0.00054599176
0.0024157297 -0.0015323635 -0.00053795759
-0.0024274378 -0.00042283963 -0.00049138948
0.0024261146 -0.00054704823 -0.00049698452
-0.0024203055 0.00050621229 -0.00050511287
0.0024007319 0.00046462609 -0.00059735507
-0.0024194017 0.0015670165 -0.00050893018
0.002405182 0.0014401238 -0.00058951392
-0.0024072218 0.0024591195 -0.0005728291
0.0024198829 0.0025315371 -0.0005192844
-0.002425578 0.0034761156 -0.00049553096
0.002414603 0.0034738176 -0.00054171763
-0.0024098901 0.0044092527 -0.00057077449
0.0024339601 0.0045911991 -0.00045201238
-0.0024137024 0.0055387127 -0.00054636912
0.0024163041 0.0055260463 -0.00051867176
-0.0024209409 0.0065227742 -0.00052507903
0.0024223123 0.0064471075 -0.00051606318
-0.0024232948 0.0075448873 -0.00050263916
0.0024255449 0.0075000632 -0.00048553193
-0.0024187285 0.0085082334 -0.0005263738
0.0024390102 0.0085061714 -0.00044021267
-0.0024271794 0.0094680339 -0.00048431419
0.0024150317 0.0094495649 -0.00055082451
-0.0024273025 0.010501721 -0.00048521752
0.0024235037 0.01046587 -0.00049783679
-0.0024331317 0.011490988 -0.00047227321
0.0024214908 0.011503855 -0.00050876359
-0.0024268504 0.012477537 -0.00047492192
0.0024259791 0.012504363 -0.00047999434
-0.0024171367 0.013490953 -0.00051503227
0.0024126186 0.013454323 -0.00053624628
-0.0024129618 0.014545436 -0.00053972541
0.002414901 0.014545972 -0.00054791366
-0.0024239169 0.015518757 -0.00049781223
0.0024219032 0.015438066 -0.00050015713
-0.0024151376 0.016483448 -0.0005496504
0.0024283624 0.016581776 -0.0004737094
-0.0024277456 0.01754545 -0.00048966985
0.0024159811 0.01750548 -0.00054174277
-0.0024204405 0.018515565 -0.00052933244
0.0024130421 0.018481255 -0.00054865115
-0.0024210727 0.019464398 -0.00051200844
0.0024187986 0.019507863 -0.00052637543
-0.0024369457 0.02049551 -0.00043794478
0.0024264227 0.020520188 -0.00049355475
-0.0024188359 0.021500099 -0.00052960432
0.0024170231 0.021511108 -0.0005444446
-0.0024374358 0.022529243 -0.00042581049
0.002422865 0.022521092 -0.0004994577
-0.0024362879 0.023464499 -0.00043937616
0.0024131865 0.023510899 -0.00054743519
-0.0024275593 0.024525324 -0.00048059766
0.0024231158 0.024481947 -0.00049836183
-0.0024232396 0.025492556 -0.00049799867
0.0024259163 0.025494197 -0.00050119765
-0.0024343459 0.026512941 -0.00045696815
0.0024222375 0.026506249 -0.00051620248
-0.0024230245 0.027464561 -0.00050340709
0.002422984 0.027529512 -0.00049535523
-0.0024233393 0.028490586 -0.00049671356
0.0024291009 0.028564183 -0.00046256409
-0.0024159544 0.029524045 -0.00054468052
0.0024126193 0.029448215 -0.00053829659
-0.0024166796 0.030456381 -0.00052270229
0.0024218999 0.030477433 -0.00051067921
-0.0024385885 0.031484347 -0.00042543208
0.0024204922 0.031507179 -0.00050455489
-0.0024286679 0.032477528 -0.00046637401
0.0024210697 0.032494072 -0.00052147493
-0.0024100025 0.033518642 -0.00057269388
0.002428255 0.033469528 -0.00048428637
-0.0024152054 0.034432057 -0.00054761121
0.0024250287 0.034481525 -0.00049233128
-0.0024370777 0.03556532 -0.00043353287
0.0024329801 0.035532232 -0.0004676689
-0.0024185705 0.036527466 -0.00051911839
0.0024206622 0.036480237 -0.00051165698
-0.0024127115 0.037541289 -0.00054481975
0.0024179446 0.037451513 -0.00052962883
-0.0024318043 0.038499121 -0.00045047788
0.0024294129 0.038531557 -0.00047380451
-0.0024227123 0.039522979 -0.00051246327
0.0024342912 0.039451174 -0.00044878828
-0.0024103727 0.040519666 -0.0005580585
0.0024171995 0.04056292 -0.00053439708
-0.0024242019 0.041496206 -0.00050161994
0.0024295757 0.041499972 -0.0004711237
-0.0024288585 0.042427614 -0.00049221382
0.0024077566 0.04251628 -0.0005543601
-0.0024208031 0.043461379 -0.00050522387
0.0024318076 0.043580823 -0.00045789007
-0.0024136566 0.044504669 -0.00054106564
0.0024279014 0.044475172 -0.00047934984
-0.0024259409 0.04550042 -0.00049519585
0.0024331033 0.045491956 -0.00044755248
-0.0024133897 0.046436712 -0.0005577401
0.0024110198 0.04645884 -0.00057279068
-0.002414623 0.047502261 -0.00054476445
0.0024084586 0.04744643 -0.00057579693
-0.00241442 0.048518836 -0.00054481294
0.0024338497 0.048533 -0.00046138896
-0.0023540331 0.049650073 -0.00047674926
-0.0014918554 0.049999975 -0.00054404023
-0.00042380017 0.049999978 -0.00049857533
0.00047367206 0.049999982 -0.00050930708
0.0015064469 0.049999971 -0.00046393587
0.002395374 0.049634017 -0.00049836951
-0.0022271164 0.050000001 -0.00024933732
-0.001442212 0.050000004 -0.00045126001
-0.00050042075 0.050000008 -0.00044430449
0.00054503354 0.050000008 -0.00045474197
0.0016106648 0.050000008 -0.00043341969
0.0022042531 0.050000001 -0.00074299023
-0.0023488957 -0.04966411 0.00050995458
-0.0015367455 -0.049999975 0.00052593334
-0.00046429413 -0.049999971 0.00048094176
0.00046766395 -0.049999971 0.00054642663
0.001529969 -0.049999971 0.00057202543
0.0023605551 -0.049618199 0.00053319655
-0.0024353825 -0.048455283 0.00045420779
0.0024148277 -0.04846283 0.00054585363
-0.0024254404 -0.047473464 0.00048049205
0.0024035012 -0.047522429 0.00059412926
-0.002414031 -0.046487823 0.0005422887
0.002427341 -0.0464359 0.00047425771
-0.0024181185 -0.045448411 0.00051692169
0.0024247754 -0.04543351 0.00051142444
-0.0024240252 -0.044533838 0.00048834214
0.0024273847 -0.044462297 0.00049232837
-0.0024217342 -0.043466926 0.00052062212
0.0024133213 -0.043486789 0.00054714794
-0.0024175197 -0.042470466 0.00051903928
0.0024248336 -0.042502686 0.0004981152
-0.00242934 -0.041497272 0.00046870869
0.0024096214 -0.04147711 0.00056454184
-0.0024150806 -0.040521502 0.00054876483
0.0024203034 -0.040467292 0.0005273596
-0.0024411925 -0.039485715 0.00041920066
0.002423492 -0.039505955 0.0005133925
-0.0024222929 -0.038548421 0.00050924497
0.00241501 -0.038511723 0.00053910573
-0.0024297624 -0.037503861 0.00048183894
0.0024168144 -0.037535105 0.00054387574
-0.0024206503 -0.036499683 0.00050869974
0.0024256948 -0.036488358 0.00047811764
-0.0024248972 -0.03548649 0.00050236681
0.0024210275 -0.035468906 0.00052912603
-0.0024236485 -0.034486633 0.00049621594
0.0024198589 -0.034498248 0.00050335843
-0.0024317473 -0.033503082 0.00047251757
0.0024145949 -0.033573035 0.00055499224
-0.0024283982 -0.032548103 0.00048950064
0.0024171388 -0.032519799 0.00052639982
-0.0024214722 -0.031527448 0.00051020598
0.0024355773 -0.031480957 0.00043653816
-0.0024123108 -0.030506862 0.00055310177
0.0024245149 -0.030527135 0.00049622456
-0.00242053 -0.029486004 0.00052410859
0.0024238864 -0.029532069 0.00049961766
-0.002429602 -0.028537996 0.00047522024
0.002438158 -0.028497575 0.00043375019
-0.0024371021 -0.027524114 0.00043539374
0.0024357196 -0.027559161 0.00043118477
-0.0024303671 -0.02649468 0.0004747253
0.0024249635 -0.026514513 0.00050687854
-0.0024249014 -0.025468834 0.00050417427
0.0024286991 -0.025562394 0.0004788404
-0.0024199919 -0.024516979 0.00053139421
0.0024054705 -0.024615683 0.00059658836
-0.002417271 -0.023451325 0.00052957755
0.0024132025 -0.023522994 0.00054168014
-0.0024159073 -0.022513086 0.00054554333
0.0024311629 -0.022516388 0.00048166237
-0.0024221707 -0.021545336 0.00051472121
0.0024161916 -0.021519266 0.00051623979
-0.0024207991 -0.020493245 0.00050218264
0.0024214094 -0.020486003 0.00050674734
-0.0024236287 -0.01950424 0.00050519739
0.0024246091 -0.019510748 0.00051737617
-0.0024191197 -0.018582406 0.00050088763
0.0024287521 -0.01849011 0.00047619175
-0.0024298055 -0.017542196 0.00047091814
0.0024221274 -0.017450456 0.00052052084
-0.002424862 -0.01656856 0.00051218347
0.002428632 -0.016528333 0.00047641367
-0.0024288334 -0.015468993 0.00047693262
0.0024209376 -0.015472723 0.00052421162
-0.0024436386 -0.014561592 0.00040425279
0.0024271531 -0.014506488 0.00047252123
-0.0024220326 -0.013460663 0.00048040019
0.0024205635 -0.013491916 0.00050256075
-0.0024233833 -0.012505919 0.00049817318
0.0024369501 -0.012461117 0.0004372421
-0.0024301265 -0.011522359 0.00045982495
0.0024260979 -0.011478208 0.00049521297
-0.0024267777 -0.010526938 0.00049860927
0.002419824 -0.010448037 0.00051914476
-0.0024145171 -0.0094893919 0.00053212378
0.0024125099 -0.0095009385 0.0005541789
-0.0024197437 -0.0084790122 0.00052088511
0.0024278353 -0.0084836856 0.00046736572
-0.0024139313 -0.0075042201 0.00055331452
0.0024290467 -0.007522196 0.00047427567
-0.0024214308 -0.0064949361 0.00052427803
0.0024320364 -0.0064164661 0.00047068475
-0.0024184687 -0.00549844 0.00053157296
0.0024182892 -0.0054852962 0.00053842098
-0.0024275091 -0.0044962536 0.00048470928
0.0024162936 -0.0044942237 0.00054291554
-0.0024107248 -0.0035581633 0.0005686612
0.0024239987 -0.0034879772 0.00049733859
-0.0024136326 -0.00251359 0.00054394442
0.0024104069 -0.0024837849 0.00056369556
-0.0024199667 -0.0015003477 0.0005044968
0.0024276827 -0.0014815063 0.00047642144
-0.0024234129 -0.00050481386 0.00050015055
0.0024104605 -0.0005616066 0.00054245442
-0.002437216 0.00051531626 0.00043667553
0.0024215961 0.00048074833 0.00051735545
-0.0024168005 0.0015150491 0.00055373629
0.002422312 0.0014909628 0.00049770286
-0.0024091064 0.0024719764 0.00058003148
0.0024185081 0.0025456268 0.00054691755
-0.002423188 0.0035249677 0.00050536171
0.00242411 0.0035007771 0.00049806607
-0.0024170994 0.0045037805 0.00054580497
0.0024198184 0.0045113615 0.0005391796
-0.0024184035 0.005483198 0.00052048144
0.0024084107 0.0055448082 0.00056671881
-0.0024095511 0.0064714788 0.00056384096
0.0024190412 0.0065007322 0.00053343765
-0.0024233237 0.0075244694 0.00050115277
0.0024012397 0.0073854751 0.00059384987
-0.0024358605 0.0085212132 0.0004384637
0.0024269312 0.0085177543 0.00048434388
-0.0024391566 0.0095440736 0.00043248673
0.0024203642 0.0094882064 0.00051805709
-0.0024172305 0.010447536 0.00052980467
0.002420878 0.010488035 0.00049929414
-0.0024227838 0.011558579 0.00051005476
0.0024170396 0.011464819 0.00053613796
-0.0024215723 0.012508986 0.00050439953
0.0024085043 0.012430958 0.00057673722
-0.002425655 0.013493898 0.00049147953
0.0024292299 0.013538978 0.00047502015
-0.0024241675 0.014495778 0.00049356825
0.0024168203 0.014561374 0.00053598947
-0.0024258636 0.015440859 0.00048451158
0.0024416184 0.015440505 0.00042662842
-0.0024321107 0.016566319 0.0004684586
0.002415156 0.016470484 0.00052389235
-0.0024204119 0.017554896 0.00051092642
0.0024331643 0.017530605 0.00044106061
-0.002421669 0.018580455 0.00050466222
0.0024192233 0.0184935 0.00052069064
-0.0024254033 0.019492133 0.0004824097
0.0024387904 0.01949187 0.0004224646
-0.0024120556 0.020496536 0.00056100282
0.0024223989 0.020523079 0.00050876295
-0.002415838 0.021510608 0.0005386385
0.0024182196 0.021445736 0.0005394207
-0.0024148296 0.022473175 0.00054348353
0.0024273463 0.022521591 0.00049082021
-0.0024340148 0.023501955 0.00044551314
0.0024191784 0.023481542 0.00053050823
-0.0024300751 0.024463227 0.0004680235
0.0024209158 0.02452123 0.0005163484
-0.0024164866 0.025484102 0.00054175273
0.0024222338 0.025470536 0.00051118719
-0.0024180308 0.026519708 0.00052697171
0.0024191055 0.026567461 0.0005153516
-0.0024268909 0.027491607 0.00048880954
0.0024254492 0.027503716 0.000512739
-0.0024103248 0.028532982 0.00055614521
0.0024247661 0.028512664 0.00049842108
-0.0024185758 0.029533412 0.00050698442
0.0024040267 0.029490031 0.00058641552
-0.0024173921 0.030463664 0.00052500988
0.0024323377 0.030565046 0.00046823299
-0.0024177227 0.031453345 0.00052190857
0.0024143117 0.03152594 0.00054579176
-0.0024324707 0.032480102 0.00044674266
0.0024346202 0.03248056 0.00043356835
-0.0024222592 0.033461981 0.00051187375
0.0024312807 0.033469077 0.00046888497
-0.0024147539 0.034499966 0.00053783297
0.0024269831 0.034498665 0.00051008747
-0.0024226829 0.035492383 0.00049988582
0.0024376085 0.035511948 0.00044558925
-0.0024236229 0.036502477 0.00050255581
0.0024211165 0.036470633 0.00050669909
-0.00241703 0.037503831 0.00051379204
0.0024180415 0.037526708 0.00053456501
-0.0024084153 0.038505018 0.0005573922
0.0024262948 0.038515471 0.00047506651
-0.002433501 0.039448313 0.00044677357
0.0024198801 0.039512984 0.00052302546
-0.0024308485 0.040496204 0.00046652392
0.0024113948 0.040493261 0.00055595749
-0.0024210489 0.041424431 0.0005148811
0.0024243307 0.041461956 0.00049110368
-0.0024181162 0.042484481 0.00054605049
0.002430782 0.042498618 0.00045680997
-0.002418627 0.043531355 0.00050843565
0.0024234864 0.04349779 0.00048853201
-0.0024211102 0.044472564 0.0005001768
0.0024245153 0.04451476 0.00051876006
-0.002407454 0.045502909 0.00056391949
0.0024266711 0.045469265 0.00048858428
-0.0024237018 0.046517722 0.00049087865
0.0024363261 0.046543252 0.00044818647
-0.0024234464 0.047463175 0.00048611319
0.0024182692 0.04744941 0.00052597973
-0.0024236883 0.048526164 0.0004983868
0.0024212105 0.048494246 0.0005249221
-0.0023671151 0.049638882 0.00045925475
-0.0015043368 0.049999978 0.00043690676
-0.00051379506 0.049999982 0.00046734067
0.0004601343 0.049999975 0.00050498173
0.0014687806 0.049999982 0.00049687008
0.0023746176 0.049580369 0.00048308846
-0.002155991 0.050000008 0.00052552629
-0.0014894372 0.050000008 0.0005711909
-0.00054423732 0.050000008 0.00054354087
0.00054950052 0.050000008 0.00041149274
0.0015569219 0.050000008 0.00045957373
0.0022543999 0.050000004 0.00030381221
-0.0021396207 -0.049614541 0.0012329549
-0.0015827254 -0.049782827 0.0015843102
-0.00047681943 -0.049999975 0.0015092464
0.00049882627 -0.049999971 0.0014530488
0.0015423769 -0.049771454 0.0015952699
0.0021495624 -0.049588699 0.0012266317
-0.0021548399 -0.048550159 0.0012418902
-0.0017014617 -0.048543561 0.0018089791
0.0017442019 -0.048524216 0.0017629396
0.0021541684 -0.048549209 0.0012428409
-0.0020978651 -0.047438618 0.0013405385
-0.0017307437 -0.047447912 0.0017792743
0.0017441866 -0.047484618 0.0017708311
0.0021386694 -0.04755906 0.0012669293
-0.0021546367 -0.046456996 0.0012399874
-0.0017432559 -0.046455525 0.0017603259
0.0017706923 -0.046496905 0.0017395962
0.0021593694 -0.046468858 0.001233605
-0.0021370726 -0.045488976 0.0012725655
-0.0017840194 -0.045477003 0.0017257265
0.0017572709 -0.045453772 0.0017554783
0.0021776441 -0.045464911 0.0012007217
-0.0021727334 -0.0444532 0.0012094777
-0.001747456 -0.044452216 0.0017627337
0.0017270392 -0.044505749 0.0017804856
0.0021641857 -0.04450221 0.0012265145
-0.0021348996 -0.043431494 0.0012727864
-0.0017376615 -0.043506216 0.001773782
0.0017825824 -0.043438938 0.0017303418
0.0021518462 -0.043568164 0.001245345
-0.0021576043 -0.042486444 0.0012382735
-0.0017941638 -0.042585209 0.0017166311
0.0017958763 -0.042519476 0.0017143301
0.0021412645 -0.042458348 0.0012675987
-0.0021646919 -0.041518297 0.0012227789
-0.0017407988 -0.04154757 0.0017703346
0.0017258881 -0.041523296 0.001788062
0.0021576537 -0.041432679 0.0012359534
-0.0021766901 -0.040468048 0.0012035661
-0.0017459819 -0.040487204 0.0017704057
0.0017523299 -0.040510438 0.0017586291
0.0021467803 -0.040514383 0.0012542068
-0.0021238043 -0.039507266 0.0012966763
-0.0017786153 -0.039495312 0.0017312726
0.0017050544 -0.039589033 0.0018066756
0.0021483176 -0.039505839 0.0012541156
-0.0021726964 -0.038465481 0.0012085619
-0.0017463287 -0.038473029 0.0017636701
0.001740792 -0.03850811 0.0017715886
0.002173942 -0.03843173 0.0012076029
-0.0021582565 -0.037592795 0.0012366085
-0.0017734315 -0.037471101 0.0017404438
0.0017542237 -0.037493225 0.001752643
0.0021503607 -0.037496496 0.0012508297
-0.0021427539 -0.036486801 0.0012640881
-0.001730717 -0.03648245 0.0017751984
0.0017466747 -0.036501631 0.0017663653
0.0021361043 -0.036544602 0.0012737947
-0.0021323529 -0.035574917 0.0012822715
-0.0017535768 -0.035532955 0.0017567278
0.0017357774 -0.035597898 0.0017737185
0.0021477335 -0.035469592 0.0012524474
-0.0021437104 -0.034501497 0.0012570088
-0.001758752 -0.034467846 0.0017575782
0.0017531086 -0.034506273 0.001759088
0.002135651 -0.034498762 0.0012779208
-0.0021551899 -0.033462215 0.0012422386
-0.0017548854 -0.03351612 0.0017551066
0.0017564584 -0.033533052 0.0017539319
0.0021273 -0.033522461 0.0012904038
-0.0021656563 -0.032465883 0.0012233137
-0.0017494368 -0.032506756 0.0017567341
0.001770077 -0.03246551 0.0017407462
0.002139403 -0.032472897 0.0012698349
-0.0021306193 -0.031506512 0.0012857375
-0.0017477178 -0.031478085 0.0017605656
0.0017463869 -0.031445123 0.0017650892
0.0021521479 -0.031485658 0.0012471823
-0.002151479 -0.030461967 0.0012494887
-0.0017572922 -0.030462384 0.0017521186
0.0017288718 -0.030580936 0.0017815001
