# .PCD v0.7 - Point Cloud Data file format
VERSION 0.7
FIELDS x y z
SIZE 4 4 4
TYPE F F F
COUNT 1 1 1
WIDTH 1260
HEIGHT 1
VIEWPOINT 0 0 0 1 0 0 0
POINTS 1260
DATA ascii
-0.022534335 -0.002662905 -0.030999996
-0.017789228 -0.0026024517 -0.031000001
-0.012616625 -0.0026145705 -0.030999998
-0.0074666915 -0.0026553255 -0.030999992
-0.0025543317 -0.0024055506 -0.030999996
0.0024952155 -0.0025668733 -0.030999996
0.0077146166 -0.0022625339 -0.031000005
0.012253989 -0.0023178037 -0.030999996
0.017435821 -0.0025938693 -0.031000007
0.022462897 -0.0023041307 -0.031000013
0.027418688 -0.0025157104 -0.031000005
0.030738227 -0.0027051072 -0.030678716
-0.030774055 0.002361577 -0.030752117
-0.027305346 0.0023209313 -0.031000011
-0.022463366 0.002684643 -0.031000011
-0.017309267 0.0026446749 -0.030999999
-0.012696041 0.0024416724 -0.030999999
-0.0073455423 0.0024781094 -0.030999996
-0.0024932954 0.0026471221 -0.030999996
0.0024079473 0.0024808957 -0.030999992
0.0075176158 0.0023187913 -0.031000013
0.012698757 0.0026440835 -0.030999999
0.017501255 0.0023447531 -0.030999999
0.02258848 0.0026278435 -0.031000013
0.027146487 0.0026540116 -0.030999998
0.030743308 0.0031879044 -0.03078202
-0.030671678 0.007480904 -0.030720498
-0.027536638 0.0075942213 -0.030999998
-0.022458566 0.0076631415 -0.031000013
-0.017506268 0.0075367982 -0.030999998
-0.012280627 0.0075152805 -0.030999979
-0.0076749967 0.0076079308 -0.031000009
-0.0024314837 0.0076242317 -0.031000005
0.0026549813 0.0075025922 -0.031000003
0.0074541247 0.0075266184 -0.031000009
0.012446021 0.0075119822 -0.030999983
0.017551349 0.0075757885 -0.031000009
0.022181964 0.0074348315 -0.030999992
0.027356684 0.0074813953 -0.030999998
0.030731414 0.0072351298 -0.030786296
-0.030660881 0.012857223 -0.030804891
-0.027552355 0.01282313 -0.031000013
-0.022815295 0.012406915 -0.030999999
-0.017497586 0.012551255 -0.030999992
-0.012713795 0.012882282 -0.030999999
-0.0075646406 0.012799546 -0.030999999
-0.002292763 0.012663225 -0.03099999
0.002610676 0.012579862 -0.031000013
0.007401376 0.012665521 -0.030999988
0.012462582 0.012648925 -0.031000001
0.01767749 0.012458912 -0.030999996
0.022603882 0.012469371 -0.030999999
0.027760157 0.012535669 -0.031000009
0.030744657 0.012821608 -0.03079487
-0.030647645 0.017124493 -0.030863388
-0.0275787 0.017423313 -0.03099999
-0.022280667 0.017172853 -0.030999994
-0.017422371 0.017197406 -0.030999979
-0.012379729 0.017503435 -0.030999996
-0.0076430365 0.017261783 -0.031000011
-0.0025140746 0.017612321 -0.031000013
0.0024330353 0.017573902 -0.030999998
0.0075145848 0.017777875 -0.030999986
0.012580726 0.017556086 -0.031000011
0.017519832 0.017238794 -0.031000013
0.022346199 0.017585821 -0.031000007
0.027328543 0.017621052 -0.030999992
0.030704813 0.017308736 -0.030757777
-0.030778607 0.022662599 -0.030667849
-0.0274565 0.022350026 -0.030999992
-0.022612963 0.022413135 -0.031000007
-0.017246723 0.022371465 -0.030999994
-0.012703987 0.022527518 -0.030999996
-0.0074920412 0.022625389 -0.031000013
-0.0026715421 0.022395909 -0.03099999
0.0024934497 0.022237493 -0.030999988
0.0076303394 0.02268273 -0.030999998
0.012502655 0.022427946 -0.030999999
0.017559731 0.02286146 -0.031000007
0.022784237 0.022602865 -0.031000007
0.02753487 0.02249418 -0.031000013
0.030843705 0.022865674 -0.030768907
-0.030685574 0.027878108 -0.030749686
-0.027288524 0.027655737 -0.031000009
-0.022399031 0.027290557 -0.030999992
-0.017469078 0.027273353 -0.030999981
-0.012745669 0.027687732 -0.030999996
-0.0073662186 0.027597621 -0.031000001
-0.0027136735 0.027720118 -0.030999999
0.0021669818 0.027850106 -0.031000013
0.0076500233 0.027420964 -0.030999996
0.012397064 0.027628789 -0.030999983
0.01749038 0.027589621 -0.030999999
0.022475155 0.027747866 -0.031000009
0.027750278 0.027618311 -0.030999996
0.03072942 0.027463788 -0.030744946
-0.03076189 0.030600138 -0.030771477
-0.027412253 0.030809024 -0.030657534
-0.022493128 0.030740872 -0.03076851
-0.017415131 0.030681452 -0.03073054
-0.012453835 0.030578136 -0.030858742
-0.0073707448 0.030716449 -0.030814536
-0.0025487361 0.030770851 -0.030735223
0.0031564122 0.030737173 -0.030728113
0.0079782121 0.030793142 -0.030724609
0.012404332 0.030745553 -0.030706048
0.017774664 0.030729795 -0.030768808
0.022334915 0.0307495 -0.030756684
0.027367322 0.030727375 -0.030781781
0.030695625 0.030512473 -0.030620664
-0.030833015 -0.030785186 -0.027582908
-0.027375078 -0.031000001 -0.027300773
-0.022410566 -0.030999999 -0.027357787
-0.017574882 -0.030999996 -0.027264293
-0.012598742 -0.031000013 -0.027702983
-0.0073178736 -0.031000013 -0.027555319
-0.0023264491 -0.030999996 -0.027929658
0.0025931897 -0.030999964 -0.027400542
0.0071622841 -0.030999992 -0.027583493
0.012543557 -0.030999994 -0.027592024
0.017292954 -0.030999986 -0.02740279
0.022440551 -0.031000011 -0.027488679
0.027204817 -0.031000011 -0.027749021
0.03073753 -0.030809483 -0.0267052
-0.030999992 -0.027558938 -0.027402958
0.030999986 -0.027468566 -0.02769769
-0.031000013 -0.022883499 -0.027460443
-0.025752166 -0.022083325 -0.025757188
-0.022410255 -0.02241094 -0.025903765
-0.017591972 -0.022585843 -0.025857907
-0.012628186 -0.022307327 -0.025904303
-0.0073542115 -0.022191087 -0.025918029
-0.0028727222 -0.022407126 -0.025914922
0.0023110514 -0.022164959 -0.025982857
0.0073266239 -0.022436254 -0.025952399
0.012622719 -0.022364901 -0.025933223
0.01750193 -0.022324415 -0.025937481
0.022082305 -0.022287006 -0.025964456
0.025809243 -0.02136652 -0.025787093
0.031000013 -0.022471188 -0.027139105
-0.030999988 -0.0175806 -0.027520183
-0.0258541 -0.017180797 -0.025824904
-0.022458913 -0.017481083 -0.026039988
-0.017454406 -0.017391024 -0.026039986
-0.012536631 -0.017618857 -0.026039984
-0.00708446 -0.017438268 -0.026039986
-0.0027554126 -0.017744005 -0.026039984
0.0025859429 -0.017454103 -0.026039986
0.0072920439 -0.017492194 -0.02603999
0.012563817 -0.017624538 -0.026039984
0.017872008 -0.017424667 -0.026039992
0.022583919 -0.017738771 -0.026039984
0.025710419 -0.017329779 -0.025852636
0.031000003 -0.017556345 -0.027152561
-0.031000009 -0.012584962 -0.027806003
-0.025891691 -0.012330137 -0.025801605
-0.022589948 -0.012561706 -0.026039984
-0.017478133 -0.01229086 -0.026039986
-0.012728274 -0.012535496 -0.026039982
-0.0075777108 -0.012808603 -0.026039988
-0.0026285416 -0.012793208 -0.026039988
0.0023679994 -0.012826777 -0.026039988
0.0075982735 -0.012319647 -0.026039986
0.012776664 -0.012510161 -0.026039984
0.017211886 -0.012412573 -0.02603999
0.022757569 -0.012717856 -0.026039997
0.025788756 -0.012172621 -0.025855148
0.031000013 -0.012459506 -0.027298093
-0.030999996 -0.0073097418 -0.02743594
-0.025683893 -0.0071394085 -0.025870856
-0.022142515 -0.0076078186 -0.026039988
-0.017404417 -0.0071556387 -0.026039988
-0.012420929 -0.0076565021 -0.026039984
-0.0076563014 -0.0073779733 -0.026039984
-0.0025528413 -0.0078432839 -0.02603999
0.0022846321 -0.0080500823 -0.026039982
0.0075369296 -0.0074773161 -0.026039984
0.012686376 -0.0075386502 -0.026039986
0.017535001 -0.0075235567 -0.026039988
0.02237848 -0.0074273581 -0.026039982
0.02562869 -0.0071782591 -0.025862737
0.031000013 -0.0074153617 -0.027476167
-0.031000013 -0.0028109192 -0.02750467
-0.025668256 -0.0022127281 -0.025913848
-0.022546306 -0.0023127031 -0.026039986
-0.017468004 -0.0023532058 -0.026039986
-0.012478727 -0.0026499217 -0.026039986
-0.0076542194 -0.0023037018 -0.02603999
-0.0025958263 -0.0026222325 -0.026039988
0.0027332911 -0.0025667946 -0.026039986
0.0075830976 -0.0026661698 -0.026039986
0.012306475 -0.0023664066 -0.026039984
0.017370244 -0.0026307323 -0.026039984
0.02273812 -0.0024507346 -0.026039986
0.025703346 -0.002874638 -0.025869591
0.031000003 -0.0021950663 -0.027514806
-0.031000003 0.0023768698 -0.027531631
-0.025709061 0.0025124988 -0.025831461
-0.022353847 0.0026303979 -0.026039992
-0.017536554 0.0025421744 -0.026039986
-0.012498806 0.002558917 -0.026039988
-0.0071768523 0.0025455318 -0.026039984
-0.0024952109 0.0025644919 -0.026039984
0.0026049353 0.0025372615 -0.026039982
0.0075861607 0.0023098844 -0.026039988
0.012537844 0.0023626748 -0.02603999
0.01750803 0.0024442251 -0.026039988
0.022401016 0.0023794302 -0.026039986
0.025777563 0.0025760925 -0.025789598
0.030999994 0.0024497176 -0.027345248
-0.03099999 0.0074489131 -0.027746789
-0.025652874 0.007261001 -0.02588987
-0.02274929 0.0074568125 -0.026039982
-0.017627357 0.0072225505 -0.02603999
-0.01263446 0.0075677326 -0.026039993
-0.0071313507 0.0074731833 -0.026039988
-0.0026413004 0.0081245536 -0.026039984
0.0025271331 0.0076835686 -0.026039988
0.0074358783 0.0073011862 -0.026039984
0.012826185 0.0076818126 -0.026039984
0.017431566 0.0075395261 -0.026039986
0.022172078 0.0075622029 -0.026039986
0.02592008 0.0073172967 -0.025707304
0.031000007 0.0072310138 -0.027372174
-0.030999986 0.012464509 -0.027430279
-0.025808005 0.01282645 -0.025706796
-0.022301717 0.012614633 -0.026039986
-0.017756708 0.012214568 -0.026039988
-0.012694363 0.012639288 -0.026039984
-0.0073313327 0.012334932 -0.026039984
-0.0028360793 0.012373974 -0.026039984
0.002323875 0.012595923 -0.026039986
0.007624377 0.012532061 -0.026039988
0.012649105 0.01242467 -0.026039984
0.017420009 0.012576316 -0.026039992
0.022690566 0.012600369 -0.026039984
0.025819935 0.011975707 -0.02571377
0.030999988 0.01253666 -0.027489543
-0.031000005 0.017662972 -0.027601771
-0.025740206 0.017421069 -0.025803629
-0.022179587 0.017189341 -0.026039984
-0.017414559 0.017306652 -0.026039992
-0.012362561 0.017419443 -0.026039984
-0.0076194038 0.017536504 -0.026039984
-0.0026434059 0.017488381 -0.026039986
0.0023931807 0.017464323 -0.026039984
0.0075450656 0.017302737 -0.026039992
0.012510399 0.017456207 -0.026039984
0.0175502 0.017421532 -0.026039984
0.022695655 0.017716633 -0.026039984
0.025768628 0.017517868 -0.025791701
0.030999998 0.017542712 -0.027739273
-0.031000013 0.022662558 -0.027959805
-0.025862474 0.022429332 -0.025685994
-0.022611357 0.022712601 -0.02603999
-0.017515391 0.022587501 -0.02603999
-0.012633753 0.022460802 -0.026039992
-0.0075220652 0.022228129 -0.026039992
-0.0024519875 0.022346422 -0.026039986
0.0026634303 0.022661736 -0.02603999
0.0075735678 0.022687022 -0.026039995
0.01218539 0.022401989 -0.026039984
0.017227199 0.022672646 -0.026039984
0.022690125 0.022243749 -0.026039992
0.025769675 0.021908808 -0.025730396
0.031000007 0.022555109 -0.027277697
-0.031000013 0.0273319 -0.027651673
-0.025768654 0.027236847 -0.025815751
-0.022474866 0.027368866 -0.026039984
-0.017518891 0.027597552 -0.026039995
-0.012200626 0.027568204 -0.026039984
-0.0073669944 0.027339954 -0.026040001
-0.0026141119 0.027503518 -0.026039986
0.0028711508 0.027611475 -0.026039988
0.0073954328 0.02752308 -0.026039988
0.012187699 0.02771692 -0.026039986
0.017669486 0.027708616 -0.026039997
0.022573583 0.027411515 -0.026039988
0.025669696 0.027749212 -0.025820622
0.031000005 0.027443802 -0.027232239
-0.030795243 0.030704681 -0.027761843
-0.027401023 0.030950433 -0.027441807
-0.022240061 0.030906659 -0.027506592
-0.017486259 0.030923881 -0.02777582
-0.012409849 0.030927889 -0.0278368
-0.0078264624 0.030938998 -0.027612859
-0.0027361338 0.030890223 -0.027596461
0.002657674 0.030897254 -0.027508499
0.0071448362 0.03088849 -0.027569605
0.012368186 0.030929903 -0.027935736
0.017388713 0.030922819 -0.027703727
0.022546273 0.030927986 -0.02765462
0.027690304 0.03094542 -0.027282776
0.030643538 0.030811997 -0.027471963
-0.030754061 -0.030760763 -0.022305271
-0.027361557 -0.031000013 -0.022474641
-0.022533141 -0.030999983 -0.022273498
-0.017507939 -0.030999999 -0.022257922
-0.012489076 -0.031000007 -0.022477746
-0.0075137573 -0.030999985 -0.022423545
-0.0025784513 -0.031000007 -0.022507451
0.0023014876 -0.030999986 -0.022450022
0.0072891288 -0.031000013 -0.022715148
0.01288092 -0.030999996 -0.022435797
0.017411411 -0.031000003 -0.022346534
0.022401331 -0.030999998 -0.022643244
0.027793149 -0.030999999 -0.022636598
0.030846735 -0.030727355 -0.021988198
-0.030999998 -0.027536932 -0.022648426
0.030999992 -0.027609225 -0.022807907
-0.030999985 -0.022541791 -0.022443028
-0.02590725 -0.022188846 -0.022495165
-0.022476956 -0.023800004 -0.022648044
-0.017564306 -0.023800012 -0.022241898
-0.012481336 -0.023800012 -0.022153627
-0.007428729 -0.023800012 -0.02270082
-0.002374714 -0.023800008 -0.022490062
0.0023845949 -0.023800012 -0.022598078
0.0075130439 -0.023800012 -0.022472931
0.012510707 -0.023800012 -0.022465941
0.017482325 -0.023800012 -0.022269493
0.022837052 -0.023800012 -0.022539852
0.025951775 -0.022244794 -0.022492753
0.031000013 -0.022478269 -0.022725035
-0.030999999 -0.017241053 -0.022262625
-0.026039988 -0.017357465 -0.022834767
0.026039986 -0.017770341 -0.022316307
0.031000003 -0.017381227 -0.022603884
-0.031000011 -0.012574943 -0.022721475
-0.026039988 -0.012408163 -0.022579165
0.026039984 -0.012805183 -0.022780601
0.030999998 -0.012645036 -0.02261739
-0.031000013 -0.0076289377 -0.022310512
-0.026039988 -0.0073324237 -0.02236871
0.026039993 -0.0071067777 -0.022517854
0.030999998 -0.0075454395 -0.022673393
-0.031000011 -0.0023986213 -0.022458587
-0.026039992 -0.0025755607 -0.022461984
0.026039992 -0.002432578 -0.02269849
0.030999996 -0.0024247144 -0.022354251
-0.030999994 0.0022997886 -0.022328071
-0.026039982 0.0023832233 -0.022382744
0.026039992 0.0027316525 -0.022674652
0.031000003 0.0025964798 -0.022602459
-0.031000003 0.0077514546 -0.022406489
-0.026039984 0.0075151525 -0.02229532
0.026039986 0.0075329458 -0.022336552
0.031000011 0.0074981456 -0.022460483
-0.031000005 0.012400134 -0.022540215
-0.02603999 0.012293626 -0.022321902
0.026039984 0.012720646 -0.022316346
0.031000001 0.01238273 -0.022597749
-0.031000013 0.017347205 -0.022465302
-0.026039984 0.017555861 -0.022546342
0.026039986 0.017687693 -0.0224752
0.030999992 0.01746265 -0.022435278
-0.031000013 0.022256063 -0.022292197
-0.026039992 0.022371145 -0.022234101
0.026039982 0.022660777 -0.022344448
0.030999998 0.022495825 -0.022455677
-0.031000007 0.027421212 -0.022589397
-0.026039984 0.027263442 -0.022111673
0.026039992 0.027273718 -0.022660773
0.030999999 0.027473828 -0.02261553
-0.030739212 0.030829655 -0.022373404
-0.027530175 0.030902036 -0.022525942
0.027607411 0.0308717 -0.022669235
0.030701216 0.030843286 -0.022624142
-0.030764757 -0.030787107 -0.017382778
-0.027631287 -0.031000013 -0.017532308
-0.022560062 -0.031000013 -0.017593527
-0.017465997 -0.030999983 -0.017607894
-0.012776317 -0.031000013 -0.017524766
-0.0074128564 -0.030999999 -0.017549613
-0.0024256057 -0.030999983 -0.017599819
0.0025467016 -0.030999988 -0.01762577
0.0075890357 -0.031000003 -0.017660409
0.012534465 -0.030999999 -0.017701436
0.017744429 -0.031000007 -0.017627807
0.02286862 -0.030999999 -0.017580012
0.027395073 -0.031000007 -0.01755894
0.030817926 -0.030775769 -0.017085742
-0.031000007 -0.027420891 -0.017375782
0.030999981 -0.02717256 -0.017531451
-0.031000013 -0.022242719 -0.017348109
-0.025966115 -0.02228912 -0.017267793
-0.022558931 -0.023800012 -0.01732181
-0.017635008 -0.023800012 -0.017728418
-0.012375592 -0.02380001 -0.017354066
-0.0075440449 -0.023800012 -0.017163914
-0.0027303938 -0.023800012 -0.017364962
0.0022383442 -0.023800012 -0.017709663
0.0071694087 -0.023800012 -0.017598627
0.012281987 -0.023800012 -0.017571345
0.017570645 -0.023800012 -0.01716228
0.022525558 -0.023800012 -0.017858017
0.025941366 -0.022410871 -0.017422793
0.030999999 -0.022508239 -0.017580755
-0.030999996 -0.017724695 -0.017471999
-0.026039982 -0.017555973 -0.017102439
0.026039984 -0.017704144 -0.017595908
0.031000013 -0.017626887 -0.017368671
-0.030999998 -0.01253968 -0.017493768
-0.02603999 -0.0124957 -0.01748546
0.026039984 -0.012476631 -0.017245498
0.030999994 -0.012391845 -0.017560946
-0.030999999 -0.0079419026 -0.017345618
-0.026039992 -0.0076686074 -0.017465774
0.026039986 -0.0074867816 -0.017445551
0.030999994 -0.0077335676 -0.017541308
-0.031000009 -0.0025340447 -0.017451905
-0.026039988 -0.0025933441 -0.017294278
0.026040001 -0.0025838159 -0.017660001
0.031000013 -0.0027770216 -0.017314596
-0.030999999 0.0023518784 -0.017360503
-0.026039982 0.0022927339 -0.017677439
0.026039995 0.0025808879 -0.017444618
0.030999992 0.0027559123 -0.017477632
-0.031000013 0.0075395252 -0.017024476
-0.026039988 0.0078740744 -0.017462734
0.026039986 0.0075765303 -0.017406136
0.03099999 0.0073430296 -0.017515516
-0.031000013 0.012610996 -0.017256424
-0.026039993 0.012764409 -0.017655829
0.026039982 0.012698235 -0.017337296
0.031000011 0.012607966 -0.017244127
-0.030999999 0.017446566 -0.01727993
-0.026039988 0.017435225 -0.017360374
0.026039988 0.017349828 -0.017280577
0.031000013 0.017379019 -0.017648967
-0.031000013 0.022274815 -0.017603327
-0.026039992 0.022630068 -0.017432613
0.026039986 0.022463368 -0.017478039
0.031000007 0.022399891 -0.017255358
-0.03099999 0.02726244 -0.017409785
-0.026039984 0.02767203 -0.017420374
0.026039993 0.027407948 -0.017544396
0.031000013 0.027656503 -0.017650405
-0.03082815 0.030764727 -0.017340863
-0.027708557 0.030911759 -0.017582748
0.027726624 0.030943455 -0.017296063
0.030663669 0.030753775 -0.017750926
-0.030730307 -0.030690951 -0.012502979
-0.02745454 -0.030999999 -0.012572723
-0.022601852 -0.030999996 -0.012465141
-0.017458174 -0.031000013 -0.013032015
-0.012818685 -0.030999996 -0.012677955
-0.0074737878 -0.031000011 -0.012519662
-0.0022682569 -0.030999998 -0.012339903
0.0025995385 -0.031000005 -0.012409791
0.0074312268 -0.031000013 -0.012359011
0.012649953 -0.031000011 -0.012312637
0.017646795 -0.030999996 -0.012772915
0.022540102 -0.030999986 -0.012618553
0.027625905 -0.031000013 -0.01257656
0.030891871 -0.030681018 -0.0127252
-0.031000001 -0.027407715 -0.012488399
0.030999998 -0.027324703 -0.012437517
-0.030999994 -0.022257647 -0.012507176
-0.025886424 -0.022556342 -0.012569563
-0.022510175 -0.023800012 -0.012309339
-0.017729644 -0.023800012 -0.012506375
-0.012730742 -0.023800012 -0.012402139
-0.0073201656 -0.023800012 -0.012465745
-0.0025926614 -0.023800012 -0.012342578
0.0024291584 -0.023800012 -0.012578974
0.0075937747 -0.023800012 -0.013042835
0.012253478 -0.023800012 -0.012637971
0.017410219 -0.023800012 -0.012472963
0.022382252 -0.023800012 -0.012442455
0.025924575 -0.022466004 -0.012593082
0.030999999 -0.022442311 -0.012304251
-0.030999994 -0.01731832 -0.012687715
-0.026039986 -0.017351976 -0.012542377
0.026039986 -0.017180961 -0.012118522
0.031000007 -0.017616117 -0.012235166
-0.030999986 -0.012655995 -0.012464031
-0.026039986 -0.012321248 -0.012426176
0.026039986 -0.012507065 -0.012527054
0.030999988 -0.01257204 -0.012548255
-0.031000003 -0.0077256928 -0.012506161
-0.026039984 -0.0075611002 -0.012589376
0.026039988 -0.0073950426 -0.012280773
0.030999996 -0.0076241563 -0.012487615
-0.030999992 -0.0025656018 -0.01220197
-0.026039986 -0.0028645571 -0.012416254
0.026039986 -0.0022469873 -0.012687776
0.031000013 -0.0022853294 -0.012471495
-0.030999999 0.0023549222 -0.012611191
-0.026039988 0.002496345 -0.012464691
0.02603999 0.0025765018 -0.012616363
0.030999996 0.0025315697 -0.012471272
-0.030999992 0.0074502244 -0.012871669
-0.026039992 0.0077570123 -0.012543458
0.026039984 0.0074007725 -0.012347324
0.030999999 0.0074491389 -0.012221672
-0.030999994 0.012638032 -0.012506285
-0.026039993 0.012286909 -0.012289793
0.026039986 0.012538566 -0.012344669
0.030999992 0.012307973 -0.01236851
-0.030999986 0.01782494 -0.012515361
-0.026039984 0.017150523 -0.012325445
0.026039988 0.017452123 -0.012464134
0.031000005 0.017572692 -0.012529043
-0.030999992 0.022616334 -0.012555796
-0.026039992 0.022209741 -0.012323589
0.026040003 0.022352479 -0.012610178
0.030999994 0.022284949 -0.01247981
-0.03099999 0.0276678 -0.012433269
-0.026039982 0.027334942 -0.012561496
0.026039992 0.027564082 -0.012571536
0.030999981 0.027536087 -0.012227702
-0.030740902 0.030795725 -0.012240429
-0.027493116 0.030891433 -0.012733498
0.027842576 0.030927563 -0.012372524
0.030655375 0.030709196 -0.012855341
-0.030809073 -0.030513775 -0.0074712862
-0.027609164 -0.030999996 -0.0074755684
-0.022672484 -0.031000003 -0.0073427004
-0.017539013 -0.031000009 -0.0077184476
-0.012508616 -0.030999999 -0.0074130087
-0.0074253199 -0.030999994 -0.0077182152
-0.0024251281 -0.031000013 -0.0074282507
0.0022886551 -0.031000007 -0.0080084149
0.0076267798 -0.031000009 -0.0077020437
0.012662014 -0.031000011 -0.0076062265
0.01763328 -0.031000013 -0.0074556964
0.022206109 -0.031000013 -0.0077079646
0.027186256 -0.030999992 -0.0073036319
0.03078917 -0.030710319 -0.0075578536
-0.031000013 -0.027404483 -0.0075245434
0.030999981 -0.027430197 -0.0072854473
-0.030999998 -0.022462891 -0.0072463225
-0.025910906 -0.022431709 -0.0075037372
-0.022676738 -0.023800012 -0.0075780861
-0.017575499 -0.023800012 -0.0075654453
-0.012248315 -0.023800012 -0.0072284681
-0.0073959627 -0.023800012 -0.00741367
-0.0026750257 -0.023800012 -0.00751448
0.0026552533 -0.023800012 -0.0075513152
0.0074401251 -0.023800012 -0.0074821361
0.012411854 -0.023800012 -0.0074418415
0.017534249 -0.023800012 -0.0074092746
0.022843778 -0.023800008 -0.0076518059
0.02594051 -0.022336114 -0.0074554784
0.030999998 -0.022037143 -0.0075879837
-0.030999996 -0.017586801 -0.00735432
-0.026039988 -0.017605547 -0.007406434
0.026039995 -0.017762341 -0.007368274
0.03099999 -0.017645029 -0.0076230089
-0.030999998 -0.012339528 -0.0075085466
-0.026039984 -0.012698882 -0.0076637994
0.026039993 -0.012456312 -0.0074682632
0.030999985 -0.012516834 -0.0072911698
-0.030999992 -0.0074573001 -0.0075105042
-0.02603999 -0.0075871795 -0.0073544458
0.026039982 -0.0075120544 -0.0076235868
0.031000007 -0.0073679565 -0.0075326739
-0.031000011 -0.0025256502 -0.0074034571
-0.026039984 -0.0026995055 -0.0077179503
0.02603999 -0.0022802169 -0.0074801105
0.031000005 -0.0023605891 -0.0075494009
-0.031000013 0.0026290563 -0.0074945069
-0.026039986 0.0025788934 -0.0075452779
0.026039984 0.0020017715 -0.0074671991
0.030999983 0.0027293628 -0.0074418886
-0.031000013 0.0073139658 -0.0075820321
-0.026039984 0.0075025843 -0.0073480508
0.02603999 0.0073920307 -0.0073936093
0.031000011 0.0074862852 -0.0076514473
-0.031000009 0.01223865 -0.0072611799
-0.026039984 0.01261209 -0.0074605439
0.026039984 0.012869573 -0.007540294
0.031000013 0.01235018 -0.0072312867
-0.031000003 0.017631061 -0.0077170813
-0.026039993 0.017617581 -0.0074853967
0.026039984 0.017627589 -0.0073367138
0.030999999 0.017673323 -0.0074643181
-0.030999999 0.022435265 -0.0075648902
-0.026039992 0.022513468 -0.0077035385
0.02603999 0.022302039 -0.0076538231
0.031000013 0.022491245 -0.0076846192
-0.030999996 0.027753796 -0.0074446131
-0.026039988 0.02755549 -0.0074196355
0.026039997 0.027440388 -0.0072834035
0.031000013 0.027538516 -0.0074271858
-0.030734755 0.030748542 -0.0074918172
-0.027604794 0.030893622 -0.0074244835
0.027464684 0.030851467 -0.0074644717
0.030711023 0.030787325 -0.0078275008
-0.030648634 -0.030795617 -0.0028829728
-0.027399607 -0.030999994 -0.0025723551
-0.022664953 -0.031000013 -0.0025055017
-0.017374037 -0.031000007 -0.0021542772
-0.012143077 -0.030999994 -0.0022873331
-0.0075980173 -0.031000003 -0.0024304541
-0.0024867111 -0.030999996 -0.002480522
0.0023880249 -0.031000007 -0.0023159308
0.0074572931 -0.03099999 -0.0025597729
0.012412272 -0.031000013 -0.002491419
0.017689306 -0.031000009 -0.0026484067
0.022257445 -0.031000013 -0.0024018055
0.027577406 -0.031000005 -0.0024585433
0.030734908 -0.030706013 -0.0027833441
-0.030999996 -0.02756167 -0.0027575979
0.030999999 -0.027548518 -0.002633729
-0.030999988 -0.022683857 -0.0024296199
-0.025953801 -0.022145167 -0.0023171939
-0.022797707 -0.023800012 -0.0026320536
-0.017257482 -0.023800006 -0.0024435616
-0.012644862 -0.023800012 -0.0025441169
-0.0073395311 -0.023800012 -0.0023241013
-0.0026573755 -0.023800012 -0.002747562
0.0024477681 -0.023800012 -0.0025588039
0.0075058867 -0.023800012 -0.0025059474
0.012256006 -0.023800012 -0.0025372694
0.017544614 -0.023800012 -0.0023205804
0.022523455 -0.023800012 -0.002629926
0.025967611 -0.022120608 -0.0027508445
0.030999992 -0.022434611 -0.0024773758
-0.030999996 -0.017332109 -0.0021794436
-0.026039995 -0.017638093 -0.0022589429
0.02603999 -0.017591035 -0.0026813268
0.030999999 -0.017666845 -0.0024838604
-0.03099999 -0.012688787 -0.0023253069
-0.026039993 -0.012409315 -0.0027353002
0.026039988 -0.012677168 -0.0025534674
0.031000007 -0.012393326 -0.0027122218
-0.031000007 -0.0074670515 -0.0027014564
-0.026039984 -0.0074089444 -0.0023956054
0.026039984 -0.0074255979 -0.0025901205
0.031000013 -0.0077181575 -0.0022743787
-0.030999986 -0.0023537525 -0.0023244184
-0.026039986 -0.0025256262 -0.0024531218
0.026039982 -0.0021044549 -0.0024078805
0.030999998 -0.0026379614 -0.0021306297
-0.031000007 0.0021949913 -0.0024221228
-0.026039982 0.0024567391 -0.0024308523
0.026039982 0.0025268283 -0.0026896656
0.031000005 0.0024153229 -0.0025849603
-0.030999998 0.0074984138 -0.002494721
-0.026039995 0.0076294029 -0.002532332
0.02603999 0.0075097433 -0.0023744497
0.031000009 0.007729067 -0.0029364992
-0.031000001 0.012485873 -0.0022723083
-0.026039984 0.012651243 -0.0025299215
0.026039992 0.012651739 -0.0027270524
0.031000009 0.012661108 -0.0021332083
-0.030999994 0.017588221 -0.0023826919
-0.026039997 0.017390937 -0.0026213718
0.026039986 0.017718505 -0.0025661327
0.031000003 0.017294724 -0.0022342394
-0.030999994 0.022444354 -0.0024039357
-0.026039984 0.022468312 -0.0023717638
0.026039984 0.022515636 -0.0020665021
0.030999996 0.022399623 -0.0022798821
-0.030999988 0.027707189 -0.0024508515
-0.026039984 0.027531452 -0.0023057014
0.026039988 0.027389027 -0.002325176
0.030999996 0.027480837 -0.0025429674
-0.030742154 0.030754421 -0.0027234454
-0.027664354 0.030897414 -0.002389817
0.027457573 0.030925807 -0.0022491103
0.030774349 0.0307754 -0.0019455714
-0.030706974 -0.030710068 0.0022676587
-0.027553268 -0.031000001 0.0026349453
-0.022495775 -0.030999996 0.0024668269
-0.017534796 -0.031000013 0.002499711
-0.012466667 -0.031000009 0.0023400404
-0.0073502087 -0.031000001 0.0020942038
-0.0024590916 -0.030999992 0.0024718512
0.0024421567 -0.030999996 0.0028504035
0.0075698644 -0.030999983 0.0027115678
0.01278864 -0.031000009 0.0023861751
0.017696939 -0.031000013 0.0025032638
0.022531558 -0.03099999 0.002268502
0.027756851 -0.031000013 0.0024766466
0.030719468 -0.030838491 0.002824625
-0.031000007 -0.02776828 0.0025824963
0.030999996 -0.027591512 0.0025188527
-0.030999996 -0.022467032 0.0025613608
-0.025900055 -0.022304399 0.0025591676
-0.022380272 -0.023800012 0.0025453742
-0.017458729 -0.023800004 0.00256679
-0.012501983 -0.023800012 0.0025726869
-0.0076298187 -0.023800012 0.0024698339
-0.0024742484 -0.023800012 0.002588433
0.0024718554 -0.023800012 0.0022823487
0.0075161043 -0.023800012 0.0023980686
0.01272852 -0.023800012 0.0027094379
0.017555956 -0.023800012 0.0020155788
0.022615073 -0.023800012 0.002318234
0.025974492 -0.022145336 0.002679328
0.031000001 -0.0226507 0.0025467107
-0.031000013 -0.017517148 0.0024919768
-0.026039984 -0.017598627 0.0024367529
0.026039984 -0.017460991 0.0022837676
0.03099999 -0.01725536 0.002374972
-0.030999992 -0.012634355 0.0025422368
-0.026039984 -0.012399371 0.0024837924
0.026039992 -0.012535223 0.0023826184
0.031000001 -0.012301352 0.002223829
-0.030999996 -0.0076064765 0.0025000563
-0.026039984 -0.0075601875 0.0027903605
0.026039986 -0.0071443692 0.0022389237
0.031000005 -0.0073530138 0.0026918
-0.030999998 -0.0027984672 0.0028058379
-0.026039984 -0.0025082233 0.0022701663
0.026039986 -0.002522022 0.0025074501
0.030999992 -0.0022067339 0.0026171356
-0.031000009 0.002251518 0.0022492593
-0.026039984 0.0028095313 0.0023441357
0.026039982 0.0027276345 0.0022673013
0.030999999 0.0027675151 0.0025514732
-0.030999992 0.0075581986 0.0023491904
-0.02603999 0.0075113736 0.0027294734
0.026039982 0.0072022984 0.0024407518
0.030999999 0.0072633615 0.002670751
-0.030999986 0.012375512 0.0025721395
-0.02603999 0.012448119 0.0026030762
0.02603999 0.012363805 0.0024490659
0.031000013 0.012661054 0.0025238432
-0.031000011 0.017543849 0.0025501484
-0.026039984 0.017285619 0.0025476376
0.026039992 0.017283611 0.0025985893
0.030999996 0.017405743 0.0024928732
-0.030999996 0.022393795 0.0024006821
-0.026039993 0.022735171 0.0023855122
0.026039986 0.022540048 0.0027159597
0.030999986 0.022315299 0.0023812028
-0.031000007 0.027618997 0.0025465917
-0.026039984 0.027598403 0.0022914067
0.026039984 0.02738818 0.0022969102
0.030999992 0.027619883 0.0022753358
-0.030701807 0.030775378 0.0025599415
-0.027349962 0.030833475 0.002467545
0.027550852 0.030942265 0.0026928633
0.030824671 0.030670056 0.0023378106
-0.030870756 -0.030702764 0.0076462692
-0.027433274 -0.030999979 0.0074010878
-0.022535786 -0.031000005 0.0076345187
-0.017863598 -0.031000013 0.0075796298
-0.012566022 -0.031000011 0.0074881464
-0.007510276 -0.030999998 0.0075242696
-0.0025434892 -0.030999972 0.0076396335
0.0024598252 -0.031000011 0.0074922745
0.007527635 -0.030999988 0.007534998
0.012666925 -0.030999994 0.0077434662
0.017425802 -0.030999996 0.0077356021
0.022449795 -0.031000013 0.0074779191
0.02747508 -0.031000013 0.0072025587
0.030878827 -0.03071771 0.0076403907
-0.031000003 -0.027627878 0.0077198022
0.030999999 -0.027118225 0.0075611682
-0.031000007 -0.022382762 0.0074583082
-0.025911765 -0.022479769 0.007792715
-0.022550447 -0.023800012 0.0075482368
-0.017273748 -0.023800012 0.0072329771
-0.012458471 -0.023800012 0.0075927256
-0.0076915855 -0.023800012 0.0075517586
-0.0027449296 -0.023800012 0.0076392633
0.0023776949 -0.023800012 0.0071418234
0.0074205813 -0.023800012 0.0077551282
0.012539993 -0.023800012 0.0077574709
0.017211627 -0.023800012 0.0076345112
0.022475326 -0.023800012 0.0076728095
0.025873428 -0.022543907 0.0073418845
0.030999999 -0.022451373 0.007302979
-0.031000011 -0.017667953 0.0072465925
-0.02603999 -0.017533466 0.0076366323
0.026039984 -0.017429302 0.0075445436
0.031000013 -0.017251883 0.0073107653
-0.031000009 -0.012738047 0.0073799291
-0.026039986 -0.01218516 0.0075653121
0.026039982 -0.012445773 0.0073833074
0.030999994 -0.012428534 0.0073930994
-0.031000013 -0.0072795344 0.0077792979
-0.026039988 -0.0076926225 0.0076526776
0.026039984 -0.0074215564 0.0078367675
0.031000011 -0.0072449371 0.0078630717
-0.030999981 -0.0025127653 0.0072468426
-0.026039986 -0.0026165333 0.0075042574
0.026039993 -0.0028077045 0.0074225394
0.031000013 -0.0025640484 0.0074486025
-0.030999992 0.0024425106 0.0073258001
-0.026039995 0.0026882698 0.007347933
0.026039984 0.0023383051 0.0073375604
0.031000013 0.0027290692 0.0076104635
-0.031000009 0.0075648809 0.0074744029
-0.026039984 0.0075584361 0.0073729819
0.026039982 0.0077072303 0.0077490634
0.03099999 0.0072518229 0.0072127087
-0.030999996 0.012488629 0.0074263387
-0.026039986 0.012669008 0.0072866678
0.02603999 0.012587108 0.0075018699
0.030999998 0.012082106 0.0070991642
-0.030999998 0.017437099 0.0074894731
-0.026039984 0.01758597 0.0075005144
0.026039984 0.017549478 0.0071833865
0.030999979 0.017606966 0.007600165
-0.030999996 0.022531001 0.0075471047
-0.026039986 0.022263531 0.0074920314
0.026039982 0.022704935 0.0072193663
0.030999998 0.022253973 0.0076678665
-0.031000013 0.027469382 0.0078013386
-0.026039984 0.027426368 0.0073603555
0.026039986 0.027447371 0.0074244402
0.031000005 0.027487107 0.007471323
-0.030753151 0.03080274 0.0072912448
-0.027686566 0.030904574 0.007418314
0.02761223 0.030904025 0.0073679946
0.030680049 0.030829318 0.0073378189
-0.030750534 -0.030769529 0.013028552
-0.02756658 -0.031000013 0.012600323
-0.022370724 -0.031000013 0.012396031
-0.0174805 -0.030999983 0.01252025
-0.012246446 -0.031000003 0.012413564
-0.0073238551 -0.031000013 0.012118896
-0.0024340048 -0.031000013 0.012425674
0.0025370771 -0.031000009 0.01247844
0.0072350195 -0.030999986 0.012545258
0.012312289 -0.031000013 0.012694873
0.017245537 -0.030999983 0.0122006
0.022483293 -0.031000013 0.01232783
0.027647689 -0.031000007 0.012621038
0.030748855 -0.030804109 0.012327536
-0.031000007 -0.02746061 0.012367672
0.031000001 -0.027616261 0.012307065
-0.030999986 -0.022674622 0.012312767
-0.025906688 -0.022347864 0.012586127
-0.022750942 -0.023800012 0.012330404
-0.017320141 -0.023800012 0.012585023
-0.012626759 -0.023800012 0.01256687
-0.0077999821 -0.023800012 0.012603076
-0.0023609612 -0.023800012 0.012144138
0.0025919469 -0.023800012 0.012726985
0.0075645745 -0.02380001 0.012555294
0.012899953 -0.023800012 0.012497306
0.017816767 -0.023800012 0.012440191
0.022379098 -0.023800012 0.01253689
0.025898559 -0.022701683 0.012416766
0.031000013 -0.022568995 0.012962857
-0.031000003 -0.017300365 0.012496742
-0.026039988 -0.017746525 0.012353809
0.026039984 -0.017688159 0.012486842
0.03099999 -0.017290791 0.012399528
-0.030999999 -0.012740651 0.012336223
-0.026039984 -0.012610587 0.012232359
0.026039984 -0.01252615 0.01256917
0.031000007 -0.01248724 0.012701496
-0.031000011 -0.0076654633 0.012497216
-0.026039984 -0.0074972967 0.012303587
0.026039986 -0.0073446105 0.012552987
0.031000011 -0.0074059158 0.012309377
-0.031000013 -0.0021822781 0.012567695
-0.026039982 -0.0023738337 0.012486908
0.026039988 -0.0025327927 0.012850991
0.031000013 -0.0024733727 0.012289094
-0.031000007 0.0022560908 0.012709728
-0.026039992 0.0024003324 0.012510508
0.026039988 0.0027471751 0.012668175
0.031000013 0.0026655972 0.01259503
-0.031000003 0.0074742804 0.012290288
-0.026039992 0.0073630516 0.01253673
0.026039984 0.007866147 0.012530394
0.031000013 0.0075972313 0.012311019
-0.030999996 0.012467644 0.012692555
-0.026039993 0.012437532 0.012427565
0.026039984 0.012618141 0.012453781
0.030999994 0.012339355 0.012864377
-0.030999986 0.017546799 0.012372674
-0.026039986 0.017540002 0.012375675
0.026039988 0.017495237 0.012547739
0.031000013 0.01766566 0.012331037
-0.030999998 0.022554569 0.012488968
-0.026039988 0.022300443 0.012372038
0.026039986 0.022702068 0.012519018
0.031000013 0.022617107 0.012585316
-0.030999999 0.0274969 0.012249406
-0.026039982 0.027241146 0.012313974
0.02603999 0.02748958 0.01245508
0.030999992 0.027244067 0.012329385
-0.030683475 0.030778037 0.012544852
-0.027597094 0.030884918 0.012449315
0.02785562 0.030928198 0.0124769
0.030658862 0.030694421 0.012392447
-0.030737391 -0.030843554 0.017607436
-0.027368465 -0.031000011 0.017724453
-0.022451961 -0.03099999 0.017444797
-0.017592628 -0.030999992 0.017311029
-0.01265825 -0.030999988 0.017354855
-0.0075866748 -0.030999983 0.017483599
-0.0025920004 -0.030999986 0.017353076
0.0023930827 -0.031000013 0.017291037
0.0075003454 -0.031000007 0.017353391
0.012542336 -0.030999988 0.017327255
0.017592847 -0.031000005 0.017732542
0.022324432 -0.031000001 0.017306114
0.027463913 -0.03099999 0.017567307
0.030806001 -0.030650258 0.017610397
-0.031000001 -0.027665479 0.017750835
0.031000013 -0.027309351 0.017489785
-0.031000005 -0.02239611 0.017454382
-0.025951738 -0.022206172 0.017491622
-0.022341507 -0.023800012 0.017516997
-0.017598519 -0.023800012 0.017659577
-0.012188632 -0.023800012 0.017629864
-0.0073821386 -0.023800012 0.017405692
-0.0024568571 -0.023800012 0.017486228
0.0025787554 -0.023800012 0.017563978
0.007525187 -0.02380001 0.017512182
0.01250832 -0.023800012 0.017618025
0.017555421 -0.023800012 0.01745436
0.022671644 -0.023800012 0.017454293
0.025944794 -0.022201492 0.017541505
0.031000009 -0.022548355 0.017246889
-0.030999999 -0.017495867 0.017331148
-0.026039984 -0.017417425 0.017257815
0.02603999 -0.017314127 0.0174677
0.031000013 -0.017726468 0.017570641
-0.031000013 -0.012611381 0.017286165
-0.026039984 -0.012686829 0.017401712
0.026039984 -0.012515265 0.017587453
0.031000013 -0.012239124 0.017616617
-0.030999999 -0.0075538415 0.017345887
-0.026040003 -0.0072367792 0.017537298
0.026039986 -0.0073368363 0.017213494
0.030999988 -0.0074770791 0.017609105
-0.030999992 -0.0026024883 0.017509405
-0.026039986 -0.0024717192 0.017685913
0.026039982 -0.0027330688 0.017431963
0.031000013 -0.0023287048 0.017547388
-0.031000013 0.0023112181 0.01768068
-0.026039984 0.0026366499 0.017376194
0.026039984 0.0026056559 0.017408207
0.031000003 0.0025242134 0.017520545
-0.031000005 0.0077105761 0.017387394
-0.026039997 0.0074082492 0.017485484
0.02603999 0.0072379648 0.017574508
0.030999983 0.007306762 0.017782759
-0.030999986 0.012146274 0.017458497
-0.026039988 0.012573889 0.017515374
0.026039992 0.012525888 0.017778607
0.030999996 0.012696574 0.017628161
-0.030999992 0.017358396 0.017565098
-0.026039982 0.017228695 0.017405121
0.026039984 0.017651336 0.017532766
0.031000013 0.017190171 0.0174991
-0.030999999 0.022616491 0.017551551
-0.026039984 0.022529352 0.017301153
0.026039992 0.022278585 0.017357122
0.030999994 0.022229405 0.017450815
-0.030999999 0.027833015 0.017611932
-0.026039982 0.027530082 0.017483614
0.026039995 0.02742821 0.017376145
0.031000011 0.027231958 0.017686026
-0.030717304 0.030814817 0.017960843
-0.027834617 0.030886607 0.017364798
0.027502153 0.03089916 0.017663637
0.030739224 0.030712768 0.017988401
-0.030724242 -0.030733142 0.022429831
-0.027320378 -0.030999983 0.022431644
-0.022751899 -0.031000013 0.022600051
-0.017293697 -0.030999992 0.022926783
-0.012418487 -0.030999996 0.022614757
-0.007659757 -0.030999981 0.022213761
-0.0022656382 -0.031000005 0.022398045
0.0024961187 -0.031000007 0.02221426
0.00776124 -0.031000001 0.022650059
0.012571233 -0.031000013 0.022308808
0.017668441 -0.031000011 0.022515539
0.022444991 -0.031000013 0.022366051
0.02721755 -0.031000011 0.022558069
0.030779658 -0.030724199 0.022863405
-0.031000013 -0.027664674 0.022532387
0.030999996 -0.027316794 0.022415496
-0.030999988 -0.022158688 0.022643469
-0.025919111 -0.022512285 0.022513397
-0.022728233 -0.023800012 0.022581752
-0.017463842 -0.023800012 0.022614367
-0.012464402 -0.023800012 0.022489876
-0.0077576465 -0.023800012 0.022621572
-0.0027481522 -0.023800012 0.022321638
0.0024198364 -0.023800012 0.022474693
0.0074099838 -0.023800012 0.022529708
0.012306811 -0.023800012 0.022646884
0.017526027 -0.02380001 0.022735307
0.022423256 -0.023800012 0.022380603
0.025903136 -0.022303848 0.022412376
0.030999999 -0.022347908 0.022401322
-0.030999999 -0.017369844 0.022383271
-0.026039984 -0.017502226 0.022395417
0.026039992 -0.017457046 0.022277081
0.031000013 -0.017614897 0.022404915
-0.031000011 -0.012514827 0.022481037
-0.026039984 -0.01255824 0.022514142
0.026039986 -0.012271285 0.022592304
0.031000011 -0.012555315 0.022572489
-0.031000005 -0.0072694854 0.022735821
-0.026039992 -0.0076002595 0.022305507
0.026039986 -0.0076023345 0.022409735
0.030999992 -0.0076833228 0.022193041
-0.031000001 -0.0025255443 0.022518994
-0.026039982 -0.0021861973 0.022438217
0.026039992 -0.0024063729 0.022607716
0.031000005 -0.0027280862 0.022401681
-0.030999996 0.0023092066 0.022651238
-0.026039986 0.0025116915 0.02253215
0.026039988 0.0020736512 0.022375489
0.031000013 0.0022710243 0.02270107
-0.031000013 0.0074054385 0.022465967
-0.026039982 0.0074738227 0.022548018
0.026039984 0.0075161159 0.02267313
0.030999996 0.0074808905 0.022488507
-0.030999994 0.012342823 0.022468681
-0.026039984 0.012482489 0.022512799
0.026039982 0.012494159 0.02242101
0.030999983 0.012571454 0.022360694
-0.031000007 0.017399466 0.022406699
-0.026039982 0.017868469 0.022453576
0.026039993 0.017477712 0.022463227
0.031000011 0.017316762 0.02253007
-0.030999988 0.022382658 0.022624716
-0.026039986 0.022799024 0.02235668
0.026039982 0.022751074 0.022360101
0.030999999 0.02226753 0.02229041
-0.030999998 0.027397692 0.022736998
-0.026039982 0.027599687 0.022446292
0.026039988 0.027807813 0.022562323
0.031000003 0.027621776 0.022219045
-0.030738005 0.030790053 0.022458008
-0.027625127 0.030920478 0.02251854
0.027824566 0.030954545 0.022576939
0.030725757 0.030704895 0.022656988
-0.030745517 -0.030769408 0.027331844
-0.027261682 -0.030999992 0.027680147
-0.022440184 -0.031000013 0.02753423
-0.017329047 -0.031000009 0.027607359
-0.012479929 -0.031000013 0.027562805
-0.0076300516 -0.030999986 0.027292242
-0.0023810719 -0.031000013 0.027845543
0.0027717967 -0.030999996 0.027554568
0.0074813734 -0.030999998 0.027691688
0.012366205 -0.031000007 0.02752538
0.017694786 -0.030999998 0.027420484
0.022721706 -0.030999992 0.027567269
0.027426915 -0.031000001 0.027879646
0.03069631 -0.03073439 0.027231034
-0.031000003 -0.027425144 0.02755221
0.031000001 -0.027525278 0.027685275
-0.030999996 -0.022763822 0.027659032
-0.025720492 -0.022283636 0.0257001
-0.022603264 -0.022368977 0.025920196
-0.017504286 -0.022284746 0.025932346
-0.012426718 -0.022190204 0.025926547
-0.0076936153 -0.02218795 0.02595911
-0.0027395033 -0.022461822 0.02593871
0.0025675134 -0.022317702 0.025943508
0.0072923452 -0.022617245 0.02584359
0.012377679 -0.022132043 0.025950801
0.017412134 -0.022160798 0.025944807
0.022545446 -0.02252242 0.025903843
0.02583826 -0.02186773 0.025679866
0.030999996 -0.022149503 0.02714367
-0.031000003 -0.017327942 0.027495563
-0.025792513 -0.017433351 0.025888849
-0.022434022 -0.017705608 0.02603999
-0.01784052 -0.017301667 0.026039984
-0.01256793 -0.017658997 0.026039984
-0.0078939954 -0.017342355 0.02603999
-0.0026792702 -0.017818654 0.026039984
0.0026301395 -0.017505558 0.02603999
0.0078060552 -0.017344322 0.026039982
0.01268544 -0.017723558 0.026039986
0.017373776 -0.017834987 0.02603999
0.022375977 -0.017845906 0.026039984
0.025750428 -0.01722355 0.025782205
0.030999985 -0.017634887 0.027373312
-0.031000013 -0.012155431 0.027524164
-0.025867382 -0.012557 0.02576185
-0.022168046 -0.012187731 0.026039984
-0.017782565 -0.012573932 0.026039984
-0.012379386 -0.012370572 0.026039984
-0.0074075009 -0.012585809 0.026039986
-0.0025599997 -0.012555336 0.026039986
0.0025571797 -0.012607785 0.026039997
0.007229113 -0.012392134 0.02603999
0.012519898 -0.012730374 0.026039986
0.017545503 -0.012837846 0.026039986
0.022520578 -0.012513696 0.026039986
0.025718767 -0.012755687 0.025788473
0.030999996 -0.012466174 0.027516879
-0.030999979 -0.0073564518 0.027483186
-0.025796333 -0.0077743172 0.025749644
-0.022492254 -0.0077295154 0.026039986
-0.017609043 -0.0079286359 0.02603999
-0.012604012 -0.0075175422 0.026039984
-0.0075543169 -0.007686418 0.026039982
-0.0022773878 -0.0071667549 0.026039984
0.0026473319 -0.0074361446 0.026039984
0.0075435233 -0.0074379183 0.026039986
0.012538322 -0.0076318285 0.026039984
0.017654296 -0.0074248812 0.026039986
0.022655642 -0.0074700061 0.026039993
0.025737692 -0.0078054089 0.025871405
0.030999992 -0.0076404847 0.027695969
-0.030999994 -0.0024029356 0.027759256
-0.025797758 -0.0024657403 0.025730083
-0.022759138 -0.0025661113 0.026039997
-0.017522208 -0.0024071313 0.026039984
-0.012624338 -0.0024481628 0.026039992
-0.0074696671 -0.0026084771 0.026039984
-0.0026873974 -0.0022371388 0.026039984
0.0025409868 -0.0022920505 0.026039984
0.0076367892 -0.0023681009 0.026039986
0.012617739 -0.0027322373 0.026039986
0.01756594 -0.0024355829 0.026039984
0.022309249 -0.0026938266 0.026039988
0.025752991 -0.0028055464 0.025765873
0.030999999 -0.0023740227 0.027485525
-0.031000003 0.002650646 0.027743047
-0.025874685 0.0023525199 0.025675332
-0.022656703 0.0027398595 0.02603999
-0.017410301 0.0026181138 0.02603999
-0.012613815 0.0023219602 0.026039984
-0.0075601223 0.0022803899 0.026039992
-0.0023771345 0.0025196047 0.026039993
0.0025116259 0.0026550735 0.026039984
0.0075620478 0.002551645 0.026039982
0.012376045 0.0023356793 0.026039986
0.017382922 0.0024566993 0.026039992
0.022636114 0.0026205264 0.026039992
0.025831454 0.002648039 0.025624679
0.031000013 0.0024699806 0.027157165
-0.030999998 0.0072564371 0.027426617
-0.02579709 0.0078230891 0.025720432
-0.02250685 0.0071957135 0.026039986
-0.01782923 0.0074074795 0.02603999
-0.012361038 0.0075233406 0.026039986
-0.0072298516 0.0075982632 0.026039982
-0.0024520189 0.0077799386 0.026039984
0.0024038069 0.0074435198 0.026039986
0.0074223904 0.0075793955 0.026039984
0.01252922 0.0076263705 0.026039988
0.017494528 0.0076356656 0.026039984
0.022392895 0.0076088943 0.026039992
0.025704313 0.0074330084 0.02579301
0.030999994 0.0078651384 0.027702924
-0.031000013 0.012679506 0.027738638
-0.025650023 0.01298317 0.025859581
-0.022450568 0.012475677 0.026039982
-0.017531395 0.012332418 0.026039984
-0.012597272 0.012242457 0.026039986
-0.0075182528 0.012754548 0.026039984
-0.0024609687 0.012366449 0.026039986
0.0025246865 0.012519273 0.026039995
0.007468638 0.012593378 0.026039986
0.012372029 0.012746142 0.026039986
0.017390398 0.012509209 0.026039993
0.022516022 0.012520937 0.02603999
0.025847528 0.012799093 0.025795072
0.030999985 0.01239194 0.027186392
-0.030999999 0.017811686 0.027527923
-0.025743894 0.017383648 0.025835369
-0.022563357 0.017500769 0.026039984
-0.017399905 0.01751717 0.026039984
-0.012429165 0.017640604 0.026040001
-0.0074816421 0.017636713 0.026039988
-0.0023515762 0.017392097 0.026039992
0.0024584606 0.017497003 0.026039986
0.007624187 0.017613074 0.026039984
0.012418902 0.017259462 0.026039986
0.017653083 0.017544597 0.026039993
0.022477936 0.01740133 0.026039982
0.025781782 0.017179675 0.025728773
0.030999996 0.017620184 0.027780106
-0.031000007 0.022425082 0.027425351
-0.025816534 0.022212941 0.02573286
-0.022384288 0.022650592 0.026039984
-0.017446591 0.022289338 0.026039984
-0.012767497 0.022557911 0.026039986
-0.0075511863 0.022295421 0.026039986
-0.0026673872 0.022501772 0.026039984
0.0026652925 0.02251499 0.026039988
0.0076011326 0.022501111 0.026039982
0.012321711 0.022504361 0.026039986
0.017662091 0.022712301 0.026039988
0.022550149 0.022566974 0.026039984
0.025730744 0.022052586 0.025890676
0.031000013 0.02251653 0.027580163
-0.030999999 0.027164141 0.027475087
-0.025775148 0.027392458 0.025811158
-0.022552088 0.02739816 0.02603999
-0.017211666 0.027408378 0.026039984
-0.01257773 0.027828693 0.026039984
-0.0075687445 0.027621817 0.026039984
-0.0027472514 0.027473016 0.02603999
0.002682576 0.027193159 0.026039988
0.007274345 0.027437037 0.026039984
0.012592487 0.027472084 0.026039993
0.017552981 0.027482565 0.026039986
0.02245298 0.027363867 0.026039986
0.025912305 0.027382761 0.025685428
0.031000001 0.027548457 0.027428994
-0.030574769 0.030790409 0.027054854
-0.02748636 0.030984323 0.027569216
-0.022669021 0.030882226 0.027511328
-0.017507987 0.030814197 0.02751098
-0.012232409 0.030886605 0.027582316
-0.0076481928 0.030885767 0.027705584
-0.0030460528 0.030885853 0.027560323
0.0024427222 0.030914411 0.027775094
0.0074530295 0.030918734 0.027453909
0.01247115 0.030854303 0.027498042
0.017309995 0.030951552 0.027825078
0.022639886 0.030891389 0.027627999
0.027383998 0.030981613 0.027455809
0.030653264 0.030887708 0.027912801
-0.030614043 -0.030754903 0.030783067
-0.027491985 -0.030780803 0.030739633
-0.02310049 -0.030722652 0.03085473
-0.017316701 -0.030697782 0.030839536
-0.01236192 -0.030845908 0.030689245
-0.0078758989 -0.030755913 0.030810636
-0.002583849 -0.030709056 0.030790854
0.0024022355 -0.030740533 0.030799374
0.0077362773 -0.030795122 0.030682009
0.012496264 -0.030672638 0.030804325
0.017027233 -0.03067475 0.030805409
0.022715421 -0.030762088 0.030724427
0.02765505 -0.030718293 0.03080876
0.030682469 -0.030667678 0.030690117
-0.030837109 -0.027337084 0.030778652
-0.027420525 -0.027412243 0.030999988
-0.022566529 -0.027329326 0.031000007
-0.017708829 -0.027755072 0.03099999
-0.012503508 -0.027602633 0.031000013
-0.0076069315 -0.027358323 0.030999999
-0.002640374 -0.027542777 0.031000003
0.0023898676 -0.027461408 0.031000003
0.0075340299 -0.027496854 0.031000005
0.012416981 -0.027475448 0.031000009
0.01787769 -0.027209811 0.031000013
0.022307716 -0.027348857 0.031000005
0.027515987 -0.027258348 0.031000011
0.030566758 -0.027696777 0.03093751
-0.030749852 -0.02242209 0.03078196
-0.027607631 -0.02256562 0.031000013
-0.022235358 -0.022419937 0.030999985
-0.017596371 -0.022643233 0.031000013
-0.012575696 -0.022311948 0.030999994
-0.0075744716 -0.02261067 0.031000007
-0.0023791904 -0.022479601 0.031000013
0.0025834981 -0.022284806 0.03099999
0.0075127543 -0.022568498 0.031000013
0.012372079 -0.022586903 0.030999996
0.017157428 -0.022621643 0.031000013
0.022533081 -0.022472672 0.030999975
0.027993426 -0.022375325 0.030999992
0.030754499 -0.022331342 0.030682994
